8.06206629734350	-1.95012197857099	11.0596539058412	0	0	0	1
8.25744180187889	-3.09715208736650	11.5214780822328	0	0	0	1
8.04146021772412	-2.08598910791704	11.1077509501177	0	0	0	1
8.01601535528200	-1.97924731820371	10.9993850015698	0	0	0	1
8.52300335854175	-2.73531952967527	11.3522307576737	0	0	0	1
8.04386769643598	-2.07648786964153	11.2146389859315	0	0	0	1
7.35723756327755	-2.08548193130581	11.2427109043181	0	0	0	1
7.37088632868254	-2.16973491719402	11.1588968262198	0	0	0	1
8.34569385100735	-3.02508185013004	11.4212246903195	0	0	0	1
8.01446749463937	-1.97649727898602	11.0410747107434	0	0	0	1
7.45936099189684	-2.21021852720291	11.2363852367048	0	0	0	1
8.10083528542397	-1.89095564495787	11.0820771741882	0	0	0	1
7.89479006909556	-2.29803161213425	10.9444197013239	0	0	0	1
8.30181469103392	-3.00697098391810	11.4802896146656	0	0	0	1
7.55148543019434	-2.29859926203025	11.2728716083575	0	0	0	1
8.08538869168245	-2.01238601977858	11.0480670536340	0	0	0	1
8.02596330458520	-1.95876232939645	11.0311375333984	0	0	0	1
7.80475827431387	-2.03285888085494	11.0207407410849	0	0	0	1
8.28723337195662	-3.20710513339628	11.4318865005442	0	0	0	1
7.92978535865473	-1.87070615757861	10.8523584235033	0	0	0	1
7.93619195972764	-1.91910347581254	10.9868525238586	0	0	0	1
8.59736200532993	-2.49571751995785	11.4765894501354	0	0	0	1
8.05550925872120	-2.03139339642909	11.0420408632073	0	0	0	1
8.00660340381925	-2.01234408321975	10.8934217252501	0	0	0	1
8.57124270637199	-2.48973222971207	11.6463007232207	0	0	0	1
8.03458206736161	-2.12501892909162	11.0842452391839	0	0	0	1
8.03714771863488	-2.15205219163219	11.0454061635455	0	0	0	1
8.13542607625416	-2.03503304683964	10.9632371129269	0	0	0	1
8.10186573847264	-2.10762779004326	10.9614351160078	0	0	0	1
7.34326492938347	-2.08568628905934	11.1571569636389	0	0	0	1
8.27651489508109	-2.11654501887806	11.1760313154865	0	0	0	1
8.26670554771501	-2.23278539861658	11.1598532911311	0	0	0	1
8.14675248248837	-2.17486485766378	11.1752922271583	0	0	0	1
8.20247034116870	-2.08730581849949	11.1873669175621	0	0	0	1
8.19475872748395	-2.23653924045069	11.1107014738844	0	0	0	1
8.14092055023339	-2.18474636610155	11.2000407184260	0	0	0	1
7.42360586577870	-2.29127832690460	11.0278968932733	0	0	0	1
7.83579661130261	-2.28339887523266	11.0667577867758	0	0	0	1
8.30756130779855	-3.18198491687642	11.3606524610216	0	0	0	1
7.85306300086595	-2.33200466969124	10.9383028622762	0	0	0	1
8.09423002089269	-2.05236909689689	11.2152361878351	0	0	0	1
8.12652223456925	-2.01865852874280	11.0646876202598	0	0	0	1
8.18770708082540	-2.04129122226607	10.9666059793403	0	0	0	1
7.38050805983829	-2.19581447467794	10.9941735165580	0	0	0	1
7.90435994228177	-2.29047139275408	10.8990474464083	0	0	0	1
8.31141971175994	-3.11118465713119	11.4171005695365	0	0	0	1
8.40048429473605	-3.12803097306301	11.3105072636657	0	0	0	1
8.04304931905695	-2.09335831792575	11.1393922466562	0	0	0	1
7.94991876582881	-2.05173699284982	11.1520863425062	0	0	0	1
8.35908470446261	-3.14636389116901	11.5140474038820	0	0	0	1
7.87404326640632	-2.19437346338888	11.0153251658061	0	0	0	1
8.38685226896401	-2.50246007736827	11.2917639147081	0	0	0	1
8.51429222538411	-2.50747936378320	11.3103484756297	0	0	0	1
8.56794086185724	-2.54611863280850	11.3409015514851	0	0	0	1
8.57778349377698	-2.66652258689997	11.4030450173263	0	0	0	1
7.96630266781540	-2.07446114281693	11.1243605420108	0	0	0	1
8.02762986999193	-2.19446506208861	11.1174509719991	0	0	0	1
8.39717386071054	-2.47373781114201	11.2964416598385	0	0	0	1
7.74682108741705	-2.29172349077852	10.8608074271793	0	0	0	1
8.43095942465624	-2.53501646470050	11.2887716037503	0	0	0	1
8.34677097136431	-2.45405159551369	11.1950782237896	0	0	0	1
7.91653317558513	-2.29450907931866	11.0563594064639	0	0	0	1
8.04196399188998	-2.27772844833950	10.9445607548094	0	0	0	1
8.07838797508829	-2.26741213059432	11.0272182595642	0	0	0	1
8.14950860878371	-2.28670219754156	11.1805978077279	0	0	0	1
8.12984116788197	-2.26071513246928	11.0912410587837	0	0	0	1
7.33822456400595	-2.06474919917294	11.1316015353291	0	0	0	1
7.41451746377576	-2.16011355186715	11.1152282498591	0	0	0	1
8.09445992222921	-2.05501906444644	11.2001473736526	0	0	0	1
7.46858729676742	-2.17877494662441	10.9428154227985	0	0	0	1
7.98542891525645	-2.09359094841110	11.1552313239559	0	0	0	1
7.47534811093811	-2.18887367336100	11.0945242311917	0	0	0	1
8.10953257201507	-2.13080490654717	11.2499845688343	0	0	0	1
8.33888891731944	-2.98681844454955	11.3395032400345	0	0	0	1
8.31849428100386	-3.15635858042143	11.4448263550479	0	0	0	1
8.24678760811821	-3.01939897953122	11.3902271333521	0	0	0	1
8.26064131383052	-3.17898262612818	11.4595418559940	0	0	0	1
8.32732582195463	-3.09271661930195	11.4281356568794	0	0	0	1
8.25413918079812	-2.96792413609879	11.2877880479213	0	0	0	1
8.47815811141477	-2.63581075275647	11.3186805739400	0	0	0	1
8.44011266457249	-3.04371723959374	11.2930499797835	0	0	0	1
8.39162429187244	-2.91625362376970	11.2995376299070	0	0	0	1
8.26416867896555	-3.01857904016255	11.2231639388098	0	0	0	1
7.87272951986312	-2.30852851173265	11.0596925013246	0	0	0	1
7.94478451200682	-2.12590048421647	11.1393127060351	0	0	0	1
8.21967353418275	-2.98317723925099	11.2885702930353	0	0	0	1
8.10785419818667	-3.02731175587675	11.3553999675015	0	0	0	1
8.32811346220660	-3.07721516602741	11.2819204734966	0	0	0	1
8.35134140326288	-2.62284098947464	11.2088660525341	0	0	0	1
7.56795143077380	-2.13881388372547	10.9741483506979	0	0	0	1
7.95671886018461	-2.42283761795155	10.8559167244329	0	0	0	1
7.99642714385367	-2.28319326731520	11.0182767839607	0	0	0	1
8.05244444008893	-2.30766617147873	10.9964669630697	0	0	0	1
8.21044875670857	-2.96332092898893	11.4040497516288	0	0	0	1
7.82072378445821	-2.32657675369488	10.9896107280830	0	0	0	1
8.01862522142023	-2.01738563744468	11.1486227772091	0	0	0	1
7.98682689120148	-2.00362634961977	11.1139339890840	0	0	0	1
8.50286092518508	-2.63666172983620	11.3015716905126	0	0	0	1
7.97732728915929	-2.18917893652443	11.1670201631531	0	0	0	1
7.91872132258679	-2.41344746511335	11.0873376808710	0	0	0	1
8.12722797563418	-2.19708638844834	11.0350954721690	0	0	0	1
8.02782704596472	-2.18763399395911	11.0049054073291	0	0	0	1
8.12587145077092	-2.23714430123424	11.0773864037759	0	0	0	1
8.07321751410363	-2.13013786123323	11.0658665367736	0	0	0	1
8.50459116538213	-2.69453602273207	11.4121601903696	0	0	0	1
8.10730050286581	-2.08920885271068	10.9328317364133	0	0	0	1
8.00923825586012	-2.13765537420658	11.0345428971231	0	0	0	1
7.34815735778016	-2.10419081312716	11.0394926845301	0	0	0	1
7.99113720052424	-2.18742081556240	11.0296817863427	0	0	0	1
8.00708602465989	-2.19390193950360	11.0818897061855	0	0	0	1
8.57579092365446	-2.58037206994232	11.2752103694343	0	0	0	1
8.21227584775172	-3.02783523775396	11.4846958180334	0	0	0	1
8.08635315444601	-2.17409643922783	10.9078630410420	0	0	0	1
8.47880258562766	-2.60788627244685	11.2137170517476	0	0	0	1
8.48777306283947	-2.55141703300674	11.2724999705298	0	0	0	1
8.04832485725146	-2.29278896101456	11.0600001729282	0	0	0	1
8.50145613317050	-2.59642774841523	11.3039824950988	0	0	0	1
8.02311925740476	-2.14472292788330	11.1483800022212	0	0	0	1
7.34146125074042	-2.09726466774023	10.9198094724169	0	0	0	1
7.93254994635398	-2.26583181231979	11.0186249745509	0	0	0	1
8.00014074669665	-2.19668216987236	11.0912972869602	0	0	0	1
7.88124644555953	-2.32897154944333	10.9690177002651	0	0	0	1
8.17618631431654	-3.01349601597210	11.4100138572220	0	0	0	1
7.47511069650341	-2.19915784841031	11.0101879092550	0	0	0	1
8.38586734865968	-2.60855175438838	11.2704076010924	0	0	0	1
8.43609080259918	-2.68974102752393	11.2767009866322	0	0	0	1
7.91181180117043	-2.14086225809996	10.9705025873664	0	0	0	1
8.05116620547546	-2.98065474809449	11.4379281148626	0	0	0	1
8.06586078394720	-3.03505257544404	11.3170555271312	0	0	0	1
7.83745234134669	-2.17299895577561	11.0756362554803	0	0	0	1
7.37559964854778	-2.06831745947608	11.0325961637389	0	0	0	1
8.03452738491998	-2.12067392668660	11.0007571421344	0	0	0	1
8.43979058095910	-2.71242228471324	11.2042296502614	0	0	0	1
8.34048273221977	-2.62307866978218	11.3849641300048	0	0	0	1
7.29960035891664	-2.04278224379993	10.9596989888473	0	0	0	1
7.35178916707956	-2.15586668938306	11.0281723835961	0	0	0	1
8.02127257199503	-3.01149091671060	11.3737301762862	0	0	0	1
8.11341774330021	-2.92185612200028	11.4590349375748	0	0	0	1
8.10411681383919	-3.00255188671519	11.5058766956297	0	0	0	1
7.88198492764359	-2.08480538064206	10.9457911612514	0	0	0	1
8.15973456501906	-2.90860351024769	11.4357554895263	0	0	0	1
7.89849106142704	-2.08918295490064	10.9737162001008	0	0	0	1
7.88288386122816	-2.07082568680099	11.0027438791728	0	0	0	1
8.58013676507613	-2.58211878455311	11.4768245750699	0	0	0	1
7.90858833093022	-2.14402238538759	10.8637952487338	0	0	0	1
8.71388017968065	-2.62931821582529	11.4029200028030	0	0	0	1
7.34830854713907	-2.17763635518714	10.8814212835362	0	0	0	1
8.32947809148518	-2.56334380118118	11.2564116449956	0	0	0	1
7.84037959971229	-2.19043717135898	11.0097558494811	0	0	0	1
8.01335254542419	-3.02474758365089	11.5241505054398	0	0	0	1
8.74706081429805	-2.68629498632928	11.5481236880273	0	0	0	1
8.29091708702429	-3.06077776537696	11.3324932044016	0	0	0	1
8.10525713990388	-3.01779136635576	11.4069431257086	0	0	0	1
7.66523622135471	-2.37552411773211	11.2595981820328	0	0	0	1
7.35827504502407	-2.09919424644772	10.9408668594759	0	0	0	1
7.99876483806843	-3.06002762806924	11.5309062171345	0	0	0	1
8.01398645006086	-3.08740064625394	11.5568137474956	0	0	0	1
8.15637593855101	-3.07281121648075	11.5344973921595	0	0	0	1
7.27950288624531	-2.18554211672671	10.8625674608486	0	0	0	1
7.39559839122273	-2.08817592182064	10.8633586435613	0	0	0	1
8.68210820465057	-2.72538556954834	11.5233265334487	0	0	0	1
7.31752364040035	-2.16027034428401	10.9067088210471	0	0	0	1
8.19722594219088	-2.99207296551405	11.3358446611632	0	0	0	1
7.67381944836291	-2.27651794974355	11.0968008484964	0	0	0	1
8.07981848443695	-2.71624808198203	11.2283954928321	0	0	0	1
7.70970465218741	-2.33846448829868	11.2036590591496	0	0	0	1
8.59380915993978	-2.62661243093714	11.4057859566642	0	0	0	1
8.16982088125951	-2.65825591828461	11.3197853820050	0	0	0	1
8.00574528272673	-2.28327669785101	10.8192773086424	0	0	0	1
7.90733663140280	-2.16401852155791	10.9877621975959	0	0	0	1
7.91296744891918	-2.31604652934639	10.8574909776347	0	0	0	1
7.83536992112070	-2.41218572480400	10.9968610896780	0	0	0	1
7.67001218933480	-2.35087937702865	11.0816320790773	0	0	0	1
7.47308440168560	-2.17593286754626	11.0839019847225	0	0	0	1
7.94606326603419	-2.19449025227217	11.0122364520478	0	0	0	1
7.95144620693760	-2.52406135953549	11.0623021842256	0	0	0	1
7.69317724616246	-2.37550360706548	11.1384860378736	0	0	0	1
7.96447816205574	-1.87490136043771	10.9425200171187	0	0	0	1
8.12895168600365	-2.50362101356348	11.1690139331620	0	0	0	1
7.99259341308772	-1.90272533286335	10.9873656002055	0	0	0	1
8.13189087448843	-2.54351456467084	11.1256460520968	0	0	0	1
8.00504061157845	-2.57032254493963	11.1366072246382	0	0	0	1
8.01735310450626	-1.86112028547703	10.8168978219318	0	0	0	1
7.85114634316853	-2.49858536796123	11.0941688128280	0	0	0	1
7.49362996301929	-2.11865523615965	10.9350311003437	0	0	0	1
8.01090960202961	-2.46477081501826	10.9062945992253	0	0	0	1
8.02183779379646	-2.61152873863920	11.2947897253681	0	0	0	1
7.92984452792631	-2.51691872221490	10.8782892309257	0	0	0	1
7.84171625045874	-2.53510284455039	10.9388083273560	0	0	0	1
7.88332738188468	-2.45422029612867	10.8850902919440	0	0	0	1
7.83943439100980	-2.14673620890537	10.9328535229310	0	0	0	1
7.91658343153343	-2.56041889671328	10.9219238556642	0	0	0	1
7.68265099238031	-2.27965853861901	11.0381830719357	0	0	0	1
7.46331612720681	-2.10640190526968	11.0084452774196	0	0	0	1
7.34118793198364	-2.14673308561765	10.9819133462784	0	0	0	1
8.66108214187855	-2.72585161545512	11.4607701361810	0	0	0	1
7.83965822333112	-2.51218640537482	11.1102509149702	0	0	0	1
7.47692738956044	-2.10508401830601	10.9554421205270	0	0	0	1
7.40222150641903	-2.17895825882300	10.9767819593104	0	0	0	1
8.48238031718747	-2.66376119222039	11.4463864602114	0	0	0	1
8.63450810688516	-2.70460709275816	11.3354183942856	0	0	0	1
8.60644347242532	-2.69600693346466	11.3961025728499	0	0	0	1
7.75294313153420	-2.44721585510040	11.1475179244488	0	0	0	1
8.72427999572385	-2.78549233820522	11.5488598044140	0	0	0	1
7.78572384107550	-2.11536172135181	10.8646860193061	0	0	0	1
7.89255344744997	-2.47051758116943	11.1007076169340	0	0	0	1
8.77574618069679	-2.73315723959791	11.3766397580116	0	0	0	1
7.77132760258071	-2.16644007165626	10.9708575847636	0	0	0	1
7.76174925578095	-2.32225356579672	11.2948880677660	0	0	0	1
8.28149609419584	-2.15984666559886	11.1527729662186	0	0	0	1
8.52543931662055	-2.86889247544881	11.2739551652597	0	0	0	1
7.71012765346566	-2.28553512593987	11.0608289237007	0	0	0	1
8.29082216143602	-2.29401085275988	11.1963939112146	0	0	0	1
7.74126887718045	-2.34451063824386	11.0823484429683	0	0	0	1
7.71927420154993	-2.36303994479424	10.8539802523513	0	0	0	1
8.32791826361031	-2.39807253442537	11.1948906947129	0	0	0	1
8.30493420081460	-2.33035284733346	11.1587790308134	0	0	0	1
8.20682386388113	-2.36704343060770	11.2801095983872	0	0	0	1
8.75557446977013	-2.72524635409092	11.4719088725485	0	0	0	1
8.18245271491253	-2.40145406921036	11.1830578834824	0	0	0	1
7.65835153340781	-2.42721935759229	11.1352104973205	0	0	0	1
8.27093085581116	-2.24292099012085	11.1737479506481	0	0	0	1
8.19272023051363	-2.30834552447438	10.9911436095909	0	0	0	1
8.19436128390543	-2.41895851235992	11.0168123169672	0	0	0	1
8.26645288988778	-2.31651669887975	11.0395095518248	0	0	0	1
7.47720180295242	-2.36687387913086	11.2136948342210	0	0	0	1
7.61267267432138	-2.24546704483886	11.0591281064328	0	0	0	1
8.50361572394060	-2.98496485276307	11.3872480090399	0	0	0	1
7.56326006488119	-2.26755177367935	11.1536725669596	0	0	0	1
8.70401939505216	-2.67309434429841	11.4205836205376	0	0	0	1
8.36276971263986	-2.81254438659372	11.2353063576890	0	0	0	1
8.23630855683283	-2.21503927898673	11.0983106825714	0	0	0	1
8.23889045052044	-2.66933936340713	11.3706878405536	0	0	0	1
8.67278733759982	-2.85883050156895	11.3787242287503	0	0	0	1
7.68598078884328	-2.42669477724349	11.1661992497575	0	0	0	1
8.03251823745021	-2.26105056139813	11.2106285338479	0	0	0	1
8.22111222168782	-2.82405138573431	11.2695747497000	0	0	0	1
7.67823488037514	-2.38550690106137	11.1634237065827	0	0	0	1
8.67628563107345	-2.76693737470438	11.4055530543119	0	0	0	1
8.21508522770107	-2.18308972305665	10.9933532648228	0	0	0	1
8.40416268814370	-2.76462733688775	11.3245934374463	0	0	0	1
7.62490411754276	-2.21332887573845	11.1221230128331	0	0	0	1
7.77707789379894	-2.28989616206529	10.9128725147701	0	0	0	1
7.69878718556762	-2.32283788399752	11.2582782176347	0	0	0	1
8.36991494237343	-2.82112151062425	11.2778569896419	0	0	0	1
8.23526657536328	-2.60181290223257	11.3399578938726	0	0	0	1
7.67881490481767	-2.28588178892998	11.0373701797178	0	0	0	1
7.70106249078888	-2.46311104664294	11.0356352789780	0	0	0	1
8.06680867843713	-2.24520911848505	11.2409612608023	0	0	0	1
7.53829225143080	-2.41476183449023	11.2244963185790	0	0	0	1
7.85341890503967	-2.63124194571856	11.5772306631019	0	0	0	1
7.70500137731330	-2.46738828895150	11.0251116064790	0	0	0	1
7.82266049486098	-2.31735097429136	10.9087720215116	0	0	0	1
8.05659463581181	-2.27119203896700	11.1394016689165	0	0	0	1
8.48196587891911	-2.79725985359708	11.4077754196512	0	0	0	1
7.66728218338019	-2.32606354140081	11.2212753475046	0	0	0	1
7.66120323047730	-2.35960509207951	10.9362263487690	0	0	0	1
7.68096723983291	-2.32663675129118	11.0865655024206	0	0	0	1
7.68035895284659	-2.44912999623220	11.0376335917522	0	0	0	1
7.70305417461937	-2.38946582608147	11.0979950138210	0	0	0	1
7.69926706421339	-2.47738330263686	11.0337638659169	0	0	0	1
7.54366737249677	-2.25989005343359	11.3782955360940	0	0	0	1
7.90204724817007	-2.56022931499924	11.1743623169721	0	0	0	1
7.71012207245796	-2.26462754282996	11.1005843398114	0	0	0	1
8.51358141577494	-2.69603498144980	11.3567066718077	0	0	0	1
7.74820827379201	-2.24905609468511	11.1178525836107	0	0	0	1
8.07874920926480	-2.30046866014799	11.2608650957421	0	0	0	1
8.56740161037124	-3.03983842731808	11.3382610440466	0	0	0	1
8.17618915281404	-2.68307479624291	11.2207917195305	0	0	0	1
8.03095134277431	-2.33215007700607	11.1577454830052	0	0	0	1
8.26666623086422	-2.77647011440298	11.3120047461350	0	0	0	1
7.63722085472623	-2.23295863501791	11.2564858668105	0	0	0	1
8.63189167650894	-2.76588347370488	11.2790358871329	0	0	0	1
8.25351007235875	-2.27992942348778	11.2225363521529	0	0	0	1
7.48307424446378	-2.35572744258859	11.2406212173874	0	0	0	1
7.47097666361599	-2.15728453139403	11.3032217779609	0	0	0	1
8.12954239670945	-2.78258520747958	11.2752303055382	0	0	0	1
8.03027361533863	-2.28946035288003	11.0626595469943	0	0	0	1
7.47640245609497	-2.22925708864693	11.3244729132175	0	0	0	1
7.69274040111494	-2.44041532671895	11.2296596154121	0	0	0	1
7.82479533250970	-2.59077149880261	11.1323772774382	0	0	0	1
8.54727630658915	-2.82822146422723	11.4576229871218	0	0	0	1
7.57259649408382	-2.16601059589675	11.2234891990313	0	0	0	1
8.58450981825816	-2.65067888618150	11.4163751750517	0	0	0	1
8.61244802863594	-2.79401289865956	11.3594061864430	0	0	0	1
7.63023647302916	-2.36111335933398	10.8615930864365	0	0	0	1
8.54713565790626	-2.67331502993717	11.3919032466954	0	0	0	1
7.97884727497971	-2.31412281835701	11.2373746400156	0	0	0	1
8.68594364847298	-2.72630743120654	11.2281268941050	0	0	0	1
8.44199994591497	-3.04051304910175	11.4735492336850	0	0	0	1
7.81043131172163	-2.40567102106094	11.0897415152297	0	0	0	1
7.69787983121052	-2.53863058494101	11.1000691969397	0	0	0	1
8.07837167769245	-2.36889862179917	11.1068963490496	0	0	0	1
7.87666549389787	-2.54759916063053	11.0164395835112	0	0	0	1
7.61821565582523	-2.21979043349244	10.9616512105929	0	0	0	1
7.64049989722386	-2.23397584616772	10.9583375735968	0	0	0	1
8.62002953766237	-2.76049850661153	11.2050179217573	0	0	0	1
8.64037899175787	-2.62244308177403	11.3595483376229	0	0	0	1
8.58049754246090	-2.82115608952454	11.1921426276128	0	0	0	1
7.72861142494268	-2.47573183823542	11.0893946804872	0	0	0	1
8.69433945146191	-2.83565234376779	11.3844614249640	0	0	0	1
8.57873895252351	-2.65682518130702	11.2391597360065	0	0	0	1
8.66127161432886	-2.81316855565399	11.2397849853411	0	0	0	1
7.80043304964760	-2.36283725689502	11.2046938363385	0	0	0	1
8.65144306230832	-2.79739340148363	11.4181735003508	0	0	0	1
7.79091017010463	-2.55710523234172	11.2768764630709	0	0	0	1
7.69815497949920	-2.41306969497118	11.0444662998286	0	0	0	1
7.55680247555210	-2.21220571318280	11.0319139588616	0	0	0	1
7.67108597105205	-2.31987630088136	10.9641394139557	0	0	0	1
7.80652853562231	-2.77783026316167	11.5162777877582	0	0	0	1
7.72572023034635	-2.32918624166276	10.9841688118869	0	0	0	1
7.72602475866749	-2.47830987071511	11.2516519786201	0	0	0	1
8.01049384692263	-2.41695288978171	11.0621305852728	0	0	0	1
8.35787125931534	-2.80187065454318	11.2130476453583	0	0	0	1
8.35567597314112	-2.94116738492129	11.3757141995748	0	0	0	1
8.52939040428572	-2.99838563689348	11.3621372169686	0	0	0	1
8.04062408473985	-2.24052038923726	11.1027298420752	0	0	0	1
8.18634967903370	-2.37800192470652	10.9782089376794	0	0	0	1
8.54314294520673	-2.87330322576249	11.3314936632895	0	0	0	1
8.05001023063822	-2.35591558251032	11.1455103566337	0	0	0	1
7.60960313497606	-2.32097027584996	10.9932258668659	0	0	0	1
8.09892678075783	-2.24401802585451	11.0221176039587	0	0	0	1
8.03373886318602	-2.26099249164275	11.0627402100044	0	0	0	1
8.33764629519303	-2.98014968353702	11.3757668696075	0	0	0	1
7.45924127408555	-2.14792015696509	11.1458082099439	0	0	0	1
8.00183088413399	-2.27126870107296	10.9771852179184	0	0	0	1
8.10306623980874	-2.26714323751426	10.8792372880994	0	0	0	1
8.77593052606451	-3.00918012493502	11.5968223516914	0	0	0	1
8.11866149316145	-2.36327009729039	10.9269510604973	0	0	0	1
8.03419607246500	-2.29420595020230	11.0512301168509	0	0	0	1
7.77779411153412	-2.36357183020906	10.9556440341920	0	0	0	1
8.42061717890607	-2.85433118581604	11.3986780766073	0	0	0	1
8.55667327555608	-2.80003715434340	11.2636633667990	0	0	0	1
8.24431326380490	-2.79392104347720	11.2198485190827	0	0	0	1
7.78350580292271	-2.47098071860690	10.9940882729978	0	0	0	1
7.81127331367513	-2.43289720391016	11.0341428540153	0	0	0	1
7.57258590062483	-2.15477484427312	11.0358310793067	0	0	0	1
8.66584573924218	-3.06658749593387	11.4705229776714	0	0	0	1
7.67381469493768	-2.17234148696254	10.9448096398914	0	0	0	1
8.06501495782174	-2.45518879648306	11.0002721167936	0	0	0	1
7.77442025553193	-2.34966130338001	11.1311496431444	0	0	0	1
7.77785945572886	-2.49073013866318	10.9931562078702	0	0	0	1
8.17794675282574	-2.53106253569386	11.1185749446822	0	0	0	1
8.23790122495259	-2.31746201202510	11.2328803608270	0	0	0	1
7.63846596922710	-2.20068263055102	10.8685032941968	0	0	0	1
7.53352368359683	-2.33992671763537	10.8154441317346	0	0	0	1
7.33470389553536	-2.14335780065210	11.2273014406214	0	0	0	1
7.78185433456148	-2.45624728468012	11.0306496526370	0	0	0	1
8.33686143245529	-2.78933444612161	11.3547769461177	0	0	0	1
8.17654578587453	-2.74534724363726	11.4098763708940	0	0	0	1
8.14277209445771	-2.52033052948177	11.2061390234697	0	0	0	1
7.53333580098433	-2.29206554904954	10.9955055294752	0	0	0	1
7.31015487889037	-2.05656934622480	11.2968529759492	0	0	0	1
8.26382449669752	-2.89033402498510	11.3922970549567	0	0	0	1
8.20281620914999	-2.28942078197581	11.2139422913543	0	0	0	1
8.14924022132933	-2.38431991451510	11.1895196980166	0	0	0	1
7.54710075576131	-2.27718866867429	10.9633065466804	0	0	0	1
7.81735608657693	-2.45420802509165	10.9831381539383	0	0	0	1
7.51703114881124	-2.26772847372416	10.9846215293399	0	0	0	1
8.36068732391847	-2.41132425559351	11.1428826683075	0	0	0	1
7.48053646765305	-2.22945699782927	10.9814591965112	0	0	0	1
8.22127676634772	-2.54743774853887	11.1830911323328	0	0	0	1
8.19311823513880	-2.50716425483813	11.1428867884264	0	0	0	1
8.32019510887433	-2.54247434868575	11.1577643703129	0	0	0	1
7.51405301155485	-2.27251003665237	10.9146551285246	0	0	0	1
8.18060668011790	-2.51055933670421	11.1301272978965	0	0	0	1
8.51771963360696	-2.94698042488026	11.2285323149487	0	0	0	1
8.52197029644579	-2.96067214757880	11.3805995820339	0	0	0	1
8.54688332977112	-2.85181844265995	11.3121350474137	0	0	0	1
8.45065658175652	-2.81720389741850	11.2388279200734	0	0	0	1
8.60404868211743	-2.94001908717693	11.2671624308320	0	0	0	1
8.43394299448971	-2.70777041796605	11.3175491751798	0	0	0	1
7.76471493644917	-2.34784802540098	10.8498722484362	0	0	0	1
7.94609643228415	-2.84778608270840	11.5406488646114	0	0	0	1
7.73629323244477	-2.52520926255811	10.9284873283849	0	0	0	1
7.69320173773567	-2.47479945934973	10.9404707406372	0	0	0	1
7.64695034374701	-2.35276362505646	11.0258449023527	0	0	0	1
8.42569620147657	-2.71961652061201	11.2283546711417	0	0	0	1
8.30498459403806	-2.40375917720114	11.1137472568574	0	0	0	1
7.64747605864889	-2.31988968162198	11.0326512845066	0	0	0	1
7.58592468986518	-2.12854151178853	11.0547172707514	0	0	0	1
7.83642161489397	-2.70194579867091	11.5350602430976	0	0	0	1
8.15515458867444	-2.47023275377089	11.2329314254823	0	0	0	1
8.39670096180015	-2.81856683474149	11.3164391405946	0	0	0	1
8.57009817900220	-2.64769211154257	11.3447604488332	0	0	0	1
8.35248564347213	-2.90793446362651	11.2864748735527	0	0	0	1
7.66843763459910	-2.43671644746114	11.0122902968983	0	0	0	1
8.66949499271149	-3.01537734004046	11.5823063884103	0	0	0	1
8.20265400128851	-2.51798630445506	11.0345663907872	0	0	0	1
8.22986716392776	-2.35942079520502	11.1407264127924	0	0	0	1
8.25262705683103	-2.45756669276101	11.1358919997807	0	0	0	1
8.27793160358669	-2.59376087639217	11.0165745721638	0	0	0	1
8.26191130204961	-2.46006781466033	10.9752532586168	0	0	0	1
7.85443822165503	-2.75313835540792	11.6379460305815	0	0	0	1
8.36707732865606	-2.82958094151555	11.2215012702146	0	0	0	1
8.48398939555776	-2.96310738904862	11.1978448638459	0	0	0	1
8.42850542308292	-2.75572929174622	11.2350348949939	0	0	0	1
8.36495760180872	-2.91989405110386	11.2385991512783	0	0	0	1
8.35249425988740	-2.84294283570146	11.1352980439208	0	0	0	1
8.32958686015881	-2.90167580149988	11.1813592525713	0	0	0	1
7.69638930753877	-2.34024024694894	10.8979113669304	0	0	0	1
7.68724077777790	-2.29595622004739	11.0354483237681	0	0	0	1
7.77201544288177	-2.34439913155840	10.8970995161247	0	0	0	1
7.74176693577154	-2.38801842563785	10.9312276065024	0	0	0	1
7.51593572618264	-2.23389932448843	11.1828906989637	0	0	0	1
8.76021566556682	-3.02546551506512	11.6483677905647	0	0	0	1
7.65757834597169	-2.35561812231763	11.0361632993326	0	0	0	1
8.39423657425383	-3.02671573026891	11.3840751426587	0	0	0	1
8.57152148354447	-2.92251287741736	11.2569102825865	0	0	0	1
7.83285630425989	-2.56106325566392	11.1844109273060	0	0	0	1
8.01380199610894	-2.57945055353354	11.1444298656584	0	0	0	1
7.79056137013033	-2.52277182421809	10.9678581013590	0	0	0	1
8.20943857178551	-2.38723673492749	11.2477862794020	0	0	0	1
8.04604169112523	-2.41149500139780	11.2305046628159	0	0	0	1
7.55950154847754	-2.29741832635365	11.0273049525783	0	0	0	1
8.43521524216172	-3.02622728885000	11.2090598212967	0	0	0	1
8.45359271210019	-2.98174031963237	11.1748984043564	0	0	0	1
7.79403496245279	-2.52123878397110	11.0181260340239	0	0	0	1
8.50150381628389	-2.97215754814604	11.2491989862046	0	0	0	1
7.52028758803054	-2.10381089061960	11.2875319162083	0	0	0	1
8.64213193010595	-3.04478487708730	11.4683007828751	0	0	0	1
7.86542254370899	-2.78314531379741	11.4877820193730	0	0	0	1
8.68953388416714	-3.04772783037429	11.6102715979939	0	0	0	1
7.80585516344930	-2.34711203453605	10.8178552208799	0	0	0	1
7.90721488914785	-2.57874096622467	11.1264387591140	0	0	0	1
7.37920901422632	-2.13630776899350	11.2862051577054	0	0	0	1
7.37802057801337	-2.12750209676620	11.2989306904239	0	0	0	1
7.89911893663442	-2.51993721053339	11.1877561394140	0	0	0	1
7.74748777688103	-2.66749165977592	11.2542475721942	0	0	0	1
8.70410341553826	-2.94457965670307	11.5299504872246	0	0	0	1
7.83290319133145	-2.72614604238078	11.5540264533960	0	0	0	1
7.81514820390010	-2.72744468680291	11.4973429813096	0	0	0	1
8.66135883486406	-2.97943353085855	11.4658136987429	0	0	0	1
7.73232934066136	-2.62320058183466	11.4504447660193	0	0	0	1
8.61989318224296	-2.96757658923823	11.5913739617847	0	0	0	1
8.57561372243665	-2.82554613707718	11.4237107734874	0	0	0	1
7.82576535004005	-2.54366677666987	11.0980895444014	0	0	0	1
8.65248961823276	-3.09635603003004	11.5866942862238	0	0	0	1
8.63662182223900	-2.94872324942601	11.3037134340261	0	0	0	1
7.82500490569456	-2.45629859327265	11.1861296306093	0	0	0	1
8.72123355975905	-3.08408580585986	11.2892403560363	0	0	0	1
8.70285543307237	-3.05811582659764	11.2790250893264	0	0	0	1
8.00985287392273	-2.44671507583959	11.1697842558450	0	0	0	1
8.65771259743573	-2.87015323660613	11.4572198015887	0	0	0	1
8.58908552408751	-3.06410444924804	11.3946610705494	0	0	0	1
8.59209051489151	-3.05129801511692	11.4660272058627	0	0	0	1
7.81164831732818	-2.61896274459644	11.4506877787163	0	0	0	1
8.60338921915015	-3.07506670929089	11.4077600572633	0	0	0	1
8.45307110310386	-2.89066355834342	11.4293042737578	0	0	0	1
7.96987739337900	-2.27226756811258	11.1111254768505	0	0	0	1
7.87548858459401	-2.72933450499715	11.5721346871458	0	0	0	1
8.26205950753800	-2.63590629739867	11.3617624987843	0	0	0	1
8.15859127227136	-2.68820249479472	11.2884206694383	0	0	0	1
7.75240977259408	-2.62553707805506	11.3318558559030	0	0	0	1
7.59934821047308	-2.31610931337233	11.2911778404019	0	0	0	1
7.76123408044449	-2.77950990699733	11.5212970854758	0	0	0	1
8.24704404532658	-2.65888512288832	11.3239163456339	0	0	0	1
7.87694990604100	-2.33531272197578	11.0118532886909	0	0	0	1
7.65622182430069	-2.36338955447876	11.4170587718466	0	0	0	1
8.13406421486502	-2.65225661379987	11.3252234145264	0	0	0	1
8.05613954473864	-2.80071800889066	11.5142873740475	0	0	0	1
7.94058135510526	-2.75993294558463	11.4324572768329	0	0	0	1
8.09310907508696	-2.30356752421726	11.1080934192971	0	0	0	1
8.57572937545291	-3.10787084377887	11.3026660177206	0	0	0	1
7.73611129103587	-2.55760720081730	11.3166910725876	0	0	0	1
8.53910953142922	-3.13045395080917	11.4516508283252	0	0	0	1
8.07485341461225	-2.35701568365238	11.1300984275231	0	0	0	1
7.86426162064920	-2.56317043748124	11.3013938028978	0	0	0	1
8.68818871200628	-3.14111629165274	11.3701670125878	0	0	0	1
8.66711303688555	-3.09185638204464	11.3843667428085	0	0	0	1
8.48270646483199	-2.78517739848401	11.3239649166612	0	0	0	1
7.85920897018539	-2.42448621588481	10.9620946969031	0	0	0	1
7.58791958372010	-2.25050377465732	11.1904363351279	0	0	0	1
8.45942437293783	-2.78573312782298	11.2601844600876	0	0	0	1
7.88878229666898	-2.35973605116281	10.8735760713703	0	0	0	1
8.02118702364077	-2.95141215185669	11.5725454426906	0	0	0	1
8.58234358829952	-3.15083741391244	11.4418918493239	0	0	0	1
8.62404594197728	-2.98957632152096	11.3216628720403	0	0	0	1
8.64537209651975	-3.01929857555745	11.3859287007285	0	0	0	1
8.62259257273798	-2.98837046745052	11.2721532661155	0	0	0	1
8.50642169287971	-2.88372491158727	11.2478363113723	0	0	0	1
8.49630806216780	-2.99735487352336	11.3446148082392	0	0	0	1
7.96917672526302	-2.37486967966778	10.9473347893324	0	0	0	1
8.10041395461910	-2.71081857894329	11.2603316685629	0	0	0	1
7.54205004026036	-1.88887971870802	10.5728384738640	0	0	0	1
8.68323441836933	-3.08659271609711	11.3637412367137	0	0	0	1
8.61334555573845	-2.95173328471653	11.4203501039656	0	0	0	1
7.78149280800394	-2.45632222735973	11.4849517234333	0	0	0	1
8.43485961837989	-2.96684067822913	11.5424658651895	0	0	0	1
7.97898795267818	-2.40939519005174	10.9451184172909	0	0	0	1
8.09237220615419	-2.63506513628400	11.2178797059022	0	0	0	1
7.89829199548897	-2.67282218221096	11.6194012045548	0	0	0	1
8.53708219816543	-2.56959042618280	11.3326969710704	0	0	0	1
8.12291465690063	-2.74360341937167	11.2424152130623	0	0	0	1
8.51100507458587	-2.89810471393621	11.4135953131598	0	0	0	1
8.56476076349392	-2.65822271229127	11.1979954185585	0	0	0	1
7.54468410955796	-2.24436498719766	11.2818983615542	0	0	0	1
8.49444605008918	-2.70852792295864	11.1735378206597	0	0	0	1
8.37443515646218	-2.62680850170673	11.2667398756389	0	0	0	1
8.35539005556762	-2.72662495518656	11.3281680287627	0	0	0	1
8.44756418653780	-2.95182146651991	11.3870684670171	0	0	0	1
7.80331165168378	-2.51480429443293	11.5496344611458	0	0	0	1
7.60174463250060	-2.35516879298863	11.1743741855643	0	0	0	1
8.44123016510075	-2.95522483900271	11.3839425079982	0	0	0	1
8.37539196068061	-2.65245023559744	11.3054062272436	0	0	0	1
8.47513857466161	-3.06182131232727	11.4213008169791	0	0	0	1
7.68391032840777	-2.29771317126434	11.1478609092630	0	0	0	1
7.59636459948999	-2.49211998656207	11.1130255355958	0	0	0	1
8.36572812017815	-2.61697398467608	11.3223215240162	0	0	0	1
7.68353506199577	-2.30160275773643	11.1578025016232	0	0	0	1
8.11595365562003	-2.83272200280057	11.3340558437343	0	0	0	1
7.61810335049034	-2.14955759794331	11.2859630536405	0	0	0	1
8.51716656535065	-2.71634720652849	11.3408168528611	0	0	0	1
8.16034553983861	-2.80449259271954	11.2864164015173	0	0	0	1
7.59275491295950	-2.44483250388735	11.0810885339729	0	0	0	1
7.50884989680065	-2.33676869786733	11.2717241718328	0	0	0	1
7.90180630978264	-2.36488655195344	11.0607433524909	0	0	0	1
8.07089841916542	-2.68490221958552	11.2209084646352	0	0	0	1
7.75396261540543	-2.40366563282733	10.9804585256586	0	0	0	1
7.94472957692486	-2.39807642901157	11.0007277623414	0	0	0	1
7.62672154248297	-2.58754277141276	11.2880735470148	0	0	0	1
7.94004036890450	-2.33184523442255	11.0655465613061	0	0	0	1
7.60293821270621	-2.22607403913116	11.2916169928031	0	0	0	1
8.14686450802730	-2.74941703827267	11.4284688432316	0	0	0	1
7.50469542630823	-2.18277873412109	11.2034516824393	0	0	0	1
8.48935376685110	-3.14080783478969	11.5953958110001	0	0	0	1
7.48458330819931	-2.20502950965017	11.2412518121176	0	0	0	1
7.89853553430148	-2.37240753842572	11.1069270275945	0	0	0	1
7.61181722627473	-2.26672951679038	11.2613503135618	0	0	0	1
7.49272393114050	-2.28724947326107	11.2359508804135	0	0	0	1
8.01932635957686	-2.54632984917929	11.0062757373483	0	0	0	1
8.07260011725997	-2.82763838077166	11.3605240201426	0	0	0	1
8.03339161422810	-2.78590637850556	11.2837721125593	0	0	0	1
8.04865300129996	-2.90696559417469	11.5178718007589	0	0	0	1
7.94464442536680	-2.65851480929705	11.3520030210706	0	0	0	1
7.98913016252890	-2.81041859751645	11.5606565770050	0	0	0	1
7.60290994326487	-2.48112126674554	11.4521056857735	0	0	0	1
7.64287003818804	-2.63848588253318	11.4350037271644	0	0	0	1
7.55872725913224	-1.66284388286777	10.5398155411285	0	0	0	1
7.90760840609689	-2.80176655102286	11.4457862997846	0	0	0	1
7.74247913968172	-1.75118276304024	10.5381504293330	0	0	0	1
8.44116859342553	-2.80330608025932	11.3994515349392	0	0	0	1
8.07839745113398	-2.39235616406001	10.9678194728434	0	0	0	1
7.87654435091742	-2.47055640333224	10.9358516165563	0	0	0	1
7.82359495412973	-2.55139574874037	10.9919326628350	0	0	0	1
7.62502918460099	-1.75973730887774	10.6230073673636	0	0	0	1
7.56797298347528	-1.73885052410350	10.5049453441197	0	0	0	1
7.70612831024034	-2.63796014226888	11.3897768259969	0	0	0	1
7.87841982185860	-2.67372060454483	11.4219267630953	0	0	0	1
8.07131346658189	-2.82171193953804	11.2429514820232	0	0	0	1
8.02313799544097	-2.75310417344016	11.3204686209437	0	0	0	1
7.85163402612984	-2.63052628393790	11.4058113707289	0	0	0	1
7.53271912157806	-2.30432544928421	11.1804395890938	0	0	0	1
7.75906810531385	-2.59060411318460	11.5404153311190	0	0	0	1
8.09947414480541	-2.88774891137951	11.1539685877679	0	0	0	1
7.98273108333256	-2.79133225799237	11.4671769711171	0	0	0	1
7.42743739467512	-2.33717669586917	11.2488250599987	0	0	0	1
8.25503397459989	-2.54197038045224	11.2102155185690	0	0	0	1
7.55586282854902	-2.22879705007783	11.2739656167032	0	0	0	1
7.90664431938044	-2.96771034233869	11.3415176377876	0	0	0	1
8.36140826637297	-2.66964224053181	11.1327856884646	0	0	0	1
8.44219845008456	-2.70798106373610	11.1858388309257	0	0	0	1
8.22778895829216	-2.48073130449798	11.1626098457262	0	0	0	1
8.29202538717199	-2.60800815142070	11.0991150404399	0	0	0	1
8.61626667457599	-2.83519125654122	11.3271251588554	0	0	0	1
7.50663369902732	-2.29211387676857	11.2965764622101	0	0	0	1
7.56649237914980	-1.45477996968780	10.3589512552161	0	0	0	1
7.86203433176630	-2.85612937003939	11.3930551804882	0	0	0	1
8.43478151277348	-3.08098354217373	11.4126982277141	0	0	0	1
8.30615408919864	-2.59098805994169	11.0378615905777	0	0	0	1
7.94783055599700	-2.82542950447826	11.3429521345484	0	0	0	1
7.46489159151008	-1.55266537423863	10.5463054844010	0	0	0	1
8.10182094392605	-2.52517638418885	11.2706710215772	0	0	0	1
7.83223194219911	-2.87057762345600	11.4325524718832	0	0	0	1
7.90290435409710	-2.90062929068817	11.5251648597634	0	0	0	1
7.94760242975996	-2.95246030929098	11.5278506522417	0	0	0	1
7.34296541729973	-1.57863518400154	10.4353117452119	0	0	0	1
7.97930937607483	-2.87224551546553	11.4528021922456	0	0	0	1
7.99891368343662	-2.70993283226982	11.4201130756578	0	0	0	1
7.90992614802066	-2.71390536179572	11.4464939264851	0	0	0	1
7.65905985549161	-1.66259035863850	10.5217099855248	0	0	0	1
8.36583537472231	-2.71384819031663	11.2142716637518	0	0	0	1
8.17860688296564	-2.58889380509903	11.1688774190115	0	0	0	1
8.39768022392248	-2.86747999243623	11.3041272820619	0	0	0	1
7.37351999517470	-1.52522421614304	10.4004451661693	0	0	0	1
7.69177521187187	-2.71348069825490	11.3532761073339	0	0	0	1
7.77748579064219	-2.61086509501236	11.3421142735940	0	0	0	1
7.40744844869628	-1.42519918281736	10.5238320551985	0	0	0	1
7.68507099800287	-2.38817306984236	11.3657931863081	0	0	0	1
8.29371124059252	-2.48879734290562	11.1416034082691	0	0	0	1
8.11945745210231	-2.57067854758871	10.9899855951455	0	0	0	1
8.19087203322312	-2.50294097446553	11.0585446875707	0	0	0	1
7.93743402815258	-2.65618861531793	11.3420999644454	0	0	0	1
8.52578571416614	-2.80975061950194	11.2485064871603	0	0	0	1
8.56603135374393	-3.04835969667781	11.4179694807967	0	0	0	1
7.90860300690477	-2.77184690942432	11.4642238549568	0	0	0	1
7.61952938650440	-1.60605870688834	10.5960964786666	0	0	0	1
7.81645552934766	-2.56313959855553	11.3917674443369	0	0	0	1
7.92420486416346	-2.88405758785866	11.5396401379366	0	0	0	1
7.85987716210120	-2.55183214361469	11.4399642026015	0	0	0	1
7.95698354274802	-2.88532305773213	11.3904133212122	0	0	0	1
8.38258671227067	-3.08026872966895	11.5170701996974	0	0	0	1
8.48187791593487	-2.85990802552747	11.2381473239621	0	0	0	1
7.93475146972240	-2.86656307409399	11.4174017220763	0	0	0	1
7.80965701542349	-2.85701016143994	11.5520516888424	0	0	0	1
7.55223935783188	-2.28678032968303	11.3039538221168	0	0	0	1
7.97094707533817	-2.85570482111307	11.2535388330382	0	0	0	1
7.46986060096948	-1.53316032270770	10.4178006463814	0	0	0	1
7.91320655254563	-2.73330848654369	11.3631147470099	0	0	0	1
7.86228724476258	-2.94757210815510	11.5855485605280	0	0	0	1
7.99508563642968	-2.96181712842950	11.4467262194839	0	0	0	1
8.49635984149609	-2.98723811949928	11.2837658684572	0	0	0	1
7.92002552303809	-2.78657466656670	11.3433948838398	0	0	0	1
8.49043500706333	-3.21176560763139	11.3231155105401	0	0	0	1
8.49133048574573	-3.10814545874921	11.3240895649862	0	0	0	1
8.59602893856518	-3.22365977112770	11.4300426606176	0	0	0	1
8.57886184522461	-3.06061758663218	11.4440424733440	0	0	0	1
8.51759303413132	-3.17542797826300	11.3395059247044	0	0	0	1
7.93123935666739	-2.92824404368141	11.4592413533518	0	0	0	1
8.50586292619669	-3.13227835505435	11.4923784450577	0	0	0	1
8.39650355689705	-2.85281636182279	11.2633543751047	0	0	0	1
8.32576730380583	-3.09531988705359	11.4631531215837	0	0	0	1
7.95859302041866	-2.93805709693942	11.5423914671789	0	0	0	1
7.77570894131098	-2.72791631023931	11.3265203450667	0	0	0	1
8.44917261266722	-2.79554532948084	11.3903493429290	0	0	0	1
7.32580327092006	-1.58690474803959	10.4547254959818	0	0	0	1
8.12058117172756	-2.57255507997766	11.2182509699286	0	0	0	1
8.29348140366884	-2.67538605668248	11.0824090477356	0	0	0	1
8.17624011022228	-2.70764402671503	11.0859671721841	0	0	0	1
8.10158814692210	-3.00290446064400	11.4421161918737	0	0	0	1
7.98565498085513	-2.89336307851771	11.5297770396279	0	0	0	1
8.03909876039271	-2.93153499311436	11.4612222251447	0	0	0	1
7.99570326604957	-2.96746193728285	11.5310461197102	0	0	0	1
7.69940729397966	-2.59809902647947	11.4343671295203	0	0	0	1
8.07475417538573	-2.54269235481060	11.2033346746876	0	0	0	1
7.69630170682764	-2.33844657884075	11.1423886067639	0	0	0	1
8.10081435881782	-2.54913446044831	11.1339133618442	0	0	0	1
8.40464996936052	-3.19085417639315	11.5662164721451	0	0	0	1
8.18008526330533	-2.59589158562762	11.2116900891489	0	0	0	1
8.47753765863918	-3.13729468790001	11.4493895008541	0	0	0	1
8.10873981845000	-3.00246329880334	11.5599648293876	0	0	0	1
8.71231905834009	-2.64093563604033	11.6283178165587	0	0	0	1
8.48327113173025	-3.07670835054561	11.4090721637437	0	0	0	1
8.26860572193366	-3.10346439410772	11.4203378136180	0	0	0	1
8.35247238815025	-3.09992896723560	11.2688300980167	0	0	0	1
8.30584900257006	-3.11222182450326	11.3850525543385	0	0	0	1
8.31242262731882	-3.22205825068096	11.3527756473159	0	0	0	1
8.32826225297627	-3.12194742772700	11.3929376855839	0	0	0	1
8.54560299314217	-2.99685299652395	11.3681419926921	0	0	0	1
8.64086168390210	-2.66305087587114	11.6390896882444	0	0	0	1
8.49856152683258	-3.04323130868990	11.3953263316025	0	0	0	1
7.42056149417156	-1.56595135471651	10.3972509826216	0	0	0	1
8.49867212743777	-3.09443586733480	11.3348204761540	0	0	0	1
7.81546609514670	-2.55330461609729	11.4019341241788	0	0	0	1
8.20197803826842	-2.66015077591271	11.0109784742869	0	0	0	1
8.41902440142228	-2.97410456672192	11.3029391664380	0	0	0	1
7.20179077852769	-1.94210408904686	11.0715777956712	0	0	0	1
8.44857131663490	-3.07761205696483	11.2701414908305	0	0	0	1
8.40450121704242	-3.04564166598003	11.3510918604764	0	0	0	1
8.47570166293209	-3.16090955761360	11.3336397646643	0	0	0	1
8.37501644305621	-3.01820310325958	11.2641765295340	0	0	0	1
8.63093724047960	-2.59038080593936	11.4986019304945	0	0	0	1
8.00882857534367	-3.02084345919130	11.5913671738666	0	0	0	1
7.96563196319464	-2.86592657958679	11.5572656545316	0	0	0	1
7.50273802988515	-1.55503533862095	10.4468514258207	0	0	0	1
7.19816541991505	-1.89336542765410	10.9759795191636	0	0	0	1
7.80787889200843	-2.54174317407448	11.2254528370364	0	0	0	1
8.28638577757548	-2.53954063579454	11.2025872782300	0	0	0	1
8.40244520576359	-2.53273911633993	11.2663501817897	0	0	0	1
7.70680992567973	-2.54301561814790	11.2693026460673	0	0	0	1
7.70547780745701	-2.31447343836243	11.1722352783565	0	0	0	1
7.54269097743090	-2.45403102564885	11.2012101121448	0	0	0	1
8.51721482628710	-2.72253496768706	11.1850157780049	0	0	0	1
7.83489268221850	-2.49745911708201	11.3313276771906	0	0	0	1
8.31291977143973	-2.76718271747888	11.1826233112117	0	0	0	1
8.48451163414823	-2.65427381426629	11.2040688116927	0	0	0	1
8.40287114820524	-2.66341159117171	11.1072184710676	0	0	0	1
8.35487522272640	-2.84330443201822	11.1369325225910	0	0	0	1
7.66558050678417	-1.63555637188581	10.6705260822945	0	0	0	1
8.06093878893723	-2.87309782780629	11.5457323479964	0	0	0	1
7.28104619375830	-2.04359317249596	11.1286262632638	0	0	0	1
8.04191400537464	-2.47681886757481	11.2492941894645	0	0	0	1
7.92370593495631	-2.53591709290697	11.2263426972102	0	0	0	1
7.21994813050539	-1.92530656248125	11.0970864666291	0	0	0	1
8.07183142837650	-2.52100888451082	11.1133988350000	0	0	0	1
7.81975534978313	-2.48170766524820	11.1943981157064	0	0	0	1
7.61020789220457	-2.20226150679039	11.4092373951064	0	0	0	1
7.25690050455660	-2.00229282879397	11.1882701682411	0	0	0	1
7.48805277564045	-2.37919708039622	11.3584354295353	0	0	0	1
7.76710736963526	-2.52758493416528	11.1664314661849	0	0	0	1
7.54527207006081	-2.38749734959457	11.3390676202527	0	0	0	1
7.71962555855101	-2.44287210112398	11.2423456715802	0	0	0	1
7.89553984990931	-2.90512127792012	11.6100381073194	0	0	0	1
7.27405828023639	-1.94120423985007	11.0345412412016	0	0	0	1
7.66699624036438	-1.84282814211471	10.5726200925631	0	0	0	1
7.81301047065608	-2.83486016514795	11.5946102101152	0	0	0	1
8.66753145520712	-2.70117157368878	11.6621895658568	0	0	0	1
7.73171750519168	-2.47830961957166	11.2781187073037	0	0	0	1
7.61447261167269	-1.74761160174628	10.4595891248144	0	0	0	1
7.28901583972341	-2.02691411434125	11.0959308598714	0	0	0	1
7.41290021889379	-1.63906265455676	10.4465320710483	0	0	0	1
7.22275217545338	-1.94213992551516	11.1217673028348	0	0	0	1
7.61838981659953	-2.29117907863291	11.1733394482632	0	0	0	1
8.58521590038269	-2.57042574271681	11.4811039514269	0	0	0	1
8.26624775375596	-2.50617423248388	11.1633364454849	0	0	0	1
8.64328706350824	-2.63676489419169	11.6353945148578	0	0	0	1
7.33206534054890	-1.99960552582124	11.1326865614218	0	0	0	1
8.77522383346471	-2.53727855319654	11.6604708904107	0	0	0	1
8.67064265795388	-2.55055315988533	11.5094794813174	0	0	0	1
7.38959587568951	-2.04696415563904	11.1216026650205	0	0	0	1
8.05960427876259	-2.61970022180965	11.2114438301382	0	0	0	1
8.04961646603843	-2.55383225664174	11.1140012222725	0	0	0	1
8.22528089203301	-2.82693903700004	11.3574396872327	0	0	0	1
7.23668157385847	-2.06483758823689	11.0768242743365	0	0	0	1
7.27406102547820	-1.59086326480569	10.4707027683647	0	0	0	1
7.81405951299942	-2.70902457605118	11.3701100355907	0	0	0	1
8.70418036732756	-2.59792524692642	11.4093480999190	0	0	0	1
8.56119263346855	-2.60370008042337	11.4085301888843	0	0	0	1
7.31600719527139	-1.98965163810459	11.1535027409072	0	0	0	1
7.58607455390893	-2.15899330256488	11.3434455312840	0	0	0	1
7.81928722663401	-2.66717183917194	11.3721790985742	0	0	0	1
8.10152150839380	-2.65869476756700	11.1491393568145	0	0	0	1
7.26864135216668	-2.13805312301476	11.0921383882959	0	0	0	1
7.61851161258419	-1.72347119570189	10.4956156966650	0	0	0	1
7.71752192844554	-2.50151833431544	11.2311651633347	0	0	0	1
7.18085689392238	-1.96398827371228	11.1723687734200	0	0	0	1
8.24818935017651	-2.98243441751008	11.3892812116565	0	0	0	1
8.34187820387412	-2.95323324543574	11.3616564338831	0	0	0	1
8.10694854634367	-2.59326815989364	11.1396603957194	0	0	0	1
7.48584190054813	-2.21942330839138	11.1967100245370	0	0	0	1
7.63174285660851	-1.79700767587099	10.6281107807851	0	0	0	1
8.38617221511643	-2.95430761273562	11.2862458449740	0	0	0	1
8.26446626313284	-3.11765491943135	11.4765432773575	0	0	0	1
7.46235196466720	-1.80709142641632	10.5287302807488	0	0	0	1
8.32030436816086	-2.95068330120790	11.3598504255856	0	0	0	1
8.23911398104145	-2.94662588062283	11.3501057644431	0	0	0	1
7.23812480529175	-1.96058835352126	10.9956602991562	0	0	0	1
7.56592592237429	-1.77184851967451	10.4506768800316	0	0	0	1
7.75986930130648	-1.65770571681844	10.4325873390177	0	0	0	1
7.71999798080893	-1.55754523007421	10.4777250537590	0	0	0	1
7.51806526921077	-1.70467269976257	10.4011961683156	0	0	0	1
8.06884551796486	-2.45112021928215	10.9803365804664	0	0	0	1
8.17816018781915	-2.57164874429243	10.9819750206801	0	0	0	1
8.22231813616209	-2.57809335482162	11.1372701123755	0	0	0	1
8.01804024838570	-2.72369043380832	11.3726121068922	0	0	0	1
7.35737339967462	-1.91469750359164	10.9943980996049	0	0	0	1
8.12233250983159	-2.55810304349370	11.0895380821220	0	0	0	1
7.29413217771243	-1.93187927795806	11.0964893666253	0	0	0	1
8.07313432818844	-2.82046707399330	11.2682851943436	0	0	0	1
7.54094598359695	-1.55134623060066	10.3543138999580	0	0	0	1
7.54878949298188	-1.53563522364634	10.3736839551678	0	0	0	1
7.94862629990573	-2.44654752256134	10.9781507658929	0	0	0	1
8.02427511665821	-2.94097522807994	11.4621200203065	0	0	0	1
7.95559437091804	-2.67631935153966	11.4165826288984	0	0	0	1
8.22322398683892	-2.96956178353174	11.4229176501388	0	0	0	1
8.15740300594522	-2.97115185943606	11.4123662202523	0	0	0	1
7.99926400005709	-2.59042049446896	10.9571643954149	0	0	0	1
8.00060292216336	-2.64532742941211	11.1263886574269	0	0	0	1
7.93721683653677	-2.46299518072868	11.1276948597933	0	0	0	1
7.98813697100605	-2.51088999211604	11.0050984583313	0	0	0	1
8.02511330364214	-2.50750763212074	11.1288723920219	0	0	0	1
8.05882006130190	-2.57938557843080	11.0194090230376	0	0	0	1
8.19227418376788	-2.67070343479322	11.1182231181066	0	0	0	1
8.20369075365799	-3.01587560790342	11.4981804334113	0	0	0	1
8.18142749975243	-3.01155977807446	11.4724446186167	0	0	0	1
8.33315498254663	-2.60940512916621	11.1177611518160	0	0	0	1
8.42270846901816	-2.81635596001438	11.1192753449019	0	0	0	1
8.39906773179686	-2.68932625268107	11.1345740486675	0	0	0	1
8.36226410556361	-2.62046672450743	11.2303726516144	0	0	0	1
8.01959070188812	-3.05387471668377	11.6132813986038	0	0	0	1
7.34963723416860	-1.92899138780807	10.9173659237933	0	0	0	1
8.10216240578888	-2.92266786481228	11.4744897824925	0	0	0	1
7.79888569024315	-2.64887283590168	11.5107014563190	0	0	0	1
8.17549177909354	-2.59849348079203	11.0806101837238	0	0	0	1
8.01434325239510	-2.97094161640830	11.4795351154009	0	0	0	1
8.00474423684386	-2.90718721587582	11.6369451734204	0	0	0	1
8.21749691184197	-2.70252712480964	11.0526910735482	0	0	0	1
8.27124996118928	-2.79332455918546	11.2788288987649	0	0	0	1
8.39465706552814	-2.85632661896333	11.2660859404153	0	0	0	1
8.19415534133063	-2.64677151360512	11.2851579915102	0	0	0	1
8.28767917131703	-2.67945039310432	11.2114910794896	0	0	0	1
8.18402052471320	-2.70723069445243	11.1798217127709	0	0	0	1
8.18699258139720	-2.75751256111845	11.1311955666973	0	0	0	1
8.19794872062093	-2.70696303847304	11.0684896539785	0	0	0	1
8.11871223100893	-2.64811715651029	11.1320659450284	0	0	0	1
8.27179191464844	-2.77479208180879	11.2016274320345	0	0	0	1
8.33759115527774	-2.79462749637482	11.2822791607139	0	0	0	1
8.14162528728917	-2.81584728651265	11.2379702574574	0	0	0	1
8.33446570098115	-2.68015271226622	11.1350418185262	0	0	0	1
7.56241247310332	-2.30772057017966	11.3944561443517	0	0	0	1
7.86789080491774	-2.72596420856254	11.5541118432607	0	0	0	1
7.22876896460412	-1.94038618383110	11.0220115307365	0	0	0	1
7.62297838087476	-2.42929407061543	11.3717273564586	0	0	0	1
8.32999287638597	-2.75952982234522	11.4002904752838	0	0	0	1
7.33834080611814	-1.99749504126973	10.9167604571845	0	0	0	1
7.44164512787888	-1.64189805377882	10.4175303270197	0	0	0	1
7.50395343106358	-1.55091348679318	10.4971179172202	0	0	0	1
7.29987165454113	-1.97008942162214	10.9803519210881	0	0	0	1
7.94166781010772	-2.68769170347965	11.4947798972554	0	0	0	1
8.13980329983377	-2.95369827970404	11.4597663726300	0	0	0	1
