12.68192196 1.35106742 -0.14104624 0 0 0
12.68143749 1.34821570 -0.14176665 0 0 0
12.68270397 1.35377729 -0.13886540 0 0 0
12.68318176 1.35877466 -0.13932128 0 0 0
12.68215561 1.35089517 -0.13986449 0 0 0
12.68195915 1.35048509 -0.14055870 0 0 0
12.68435574 1.35940742 -0.13420877 0 0 0
12.68433475 1.36028194 -0.13477452 0 0 0
12.68217373 1.35060358 -0.13962550 0 0 0
12.68230247 1.35672081 -0.14230773 0 0 0
12.68468571 1.36043024 -0.13322084 0 0 0
12.68288326 1.35777068 -0.14017251 0 0 0
12.68334007 1.35536563 -0.13676000 0 0 0
12.68174934 1.35018718 -0.14137529 0 0 0
12.68250942 1.35923421 -0.14269516 0 0 0
12.68225384 1.35423040 -0.14119816 0 0 0
12.68307495 1.35528231 -0.13794699 0 0 0
12.68369579 1.36046088 -0.13783759 0 0 0
12.68454266 1.36037445 -0.13385570 0 0 0
12.68353653 1.35537302 -0.13585350 0 0 0
12.68376923 1.35674286 -0.13550660 0 0 0
12.68296814 1.35352075 -0.13749652 0 0 0
12.68291664 1.35724974 -0.13974074 0 0 0
12.68243313 1.35270739 -0.13954648 0 0 0
12.68140793 1.34909856 -0.14237666 0 0 0
12.68307781 1.35775816 -0.13925867 0 0 0
12.68193817 1.35033429 -0.14057696 0 0 0
12.68405056 1.35939336 -0.13561620 0 0 0
12.68329525 1.35874164 -0.13877776 0 0 0
12.68440628 1.36034131 -0.13447534 0 0 0
12.68312263 1.35623658 -0.13823436 0 0 0
12.68225574 1.35567987 -0.14196436 0 0 0
12.68386173 1.35822833 -0.13587199 0 0 0
12.68156719 1.35065174 -0.14246587 0 0 0
12.68246174 1.35732186 -0.14189127 0 0 0
12.68234158 1.35965109 -0.14370094 0 0 0
12.68373203 1.35881913 -0.13678883 0 0 0
12.68174362 1.34924555 -0.14089318 0 0 0
12.68350983 1.35817111 -0.13747539 0 0 0
12.68318844 1.36057043 -0.14025511 0 0 0
12.68247795 1.35261190 -0.13928623 0 0 0
12.68268013 1.35289931 -0.13849978 0 0 0
12.68264103 1.36029315 -0.14264978 0 0 0
12.68302250 1.35994685 -0.14069322 0 0 0
12.68168831 1.35064995 -0.14190291 0 0 0
12.68270206 1.35677934 -0.14048497 0 0 0
12.68278122 1.35568976 -0.13952883 0 0 0
12.68413734 1.35849297 -0.13473634 0 0 0
12.68431568 1.35999143 -0.13470843 0 0 0
12.68162251 1.34903133 -0.14134218 0 0 0
12.68291855 1.36026525 -0.14134490 0 0 0
12.68291855 1.35362947 -0.13778298 0 0 0
12.68446732 1.35981059 -0.13390423 0 0 0
12.68256855 1.35682678 -0.14112687 0 0 0
12.68200016 1.35095477 -0.14062025 0 0 0
12.68284607 1.35906363 -0.14103590 0 0 0
12.68205738 1.35171831 -0.14076066 0 0 0
12.68162632 1.34891307 -0.14126043 0 0 0
12.68228245 1.35321772 -0.14052264 0 0 0
12.68269825 1.35810912 -0.14121403 0 0 0
12.68422890 1.35996616 -0.13509491 0 0 0
12.68347645 1.36033452 -0.13879156 0 0 0
12.68249798 1.35446656 -0.14018948 0 0 0
12.68327427 1.36052024 -0.13983394 0 0 0
12.68333912 1.35629177 -0.13725793 0 0 0
12.68315792 1.35680616 -0.13837598 0 0 0
12.68425655 1.35805392 -0.13394332 0 0 0
12.68300343 1.35735798 -0.13939358 0 0 0
12.68386173 1.35885179 -0.13620834 0 0 0
12.68179703 1.35142386 -0.14181635 0 0 0
12.68278790 1.35341990 -0.13828132 0 0 0
12.68258572 1.35965014 -0.14255890 0 0 0
12.68194008 1.34971189 -0.14023232 0 0 0
12.68369675 1.35947394 -0.13730469 0 0 0
12.68230057 1.35589075 -0.14186844 0 0 0
12.68383694 1.35803926 -0.13588203 0 0 0
12.68284416 1.35832560 -0.14065212 0 0 0
12.68244648 1.35635114 -0.14144062 0 0 0
12.68237400 1.35364473 -0.14032669 0 0 0
12.68223763 1.35875428 -0.14370081 0 0 0
12.68245983 1.35853732 -0.14255105 0 0 0
12.68251896 1.34921885 -0.13339965 0 0 0
12.68256855 1.35137498 -0.13739938 0 0 0
12.68424416 1.35690582 -0.13190091 0 0 0
12.68217182 1.34842634 -0.13527815 0 0 0
12.68179226 1.34732461 -0.13684067 0 0 0
12.68133736 1.34720945 -0.14122652 0 0 0
12.68277359 1.35239315 -0.13744004 0 0 0
12.68239021 1.34800994 -0.13218307 0 0 0
12.68267918 1.35221326 -0.13802186 0 0 0
12.68412971 1.35647917 -0.13218205 0 0 0
12.68205166 1.34714019 -0.13381217 0 0 0
12.68180370 1.34765673 -0.13741621 0 0 0
12.68361568 1.35439551 -0.13305929 0 0 0
12.68252945 1.35120320 -0.13743395 0 0 0
12.68402290 1.35559273 -0.13141149 0 0 0
12.68304348 1.35303402 -0.13602659 0 0 0
12.68234730 1.35032952 -0.13745995 0 0 0
12.68308735 1.35071599 -0.13075300 0 0 0
12.68166447 1.34757495 -0.13865128 0 0 0
12.68310165 1.35078216 -0.13074256 0 0 0
12.68184757 1.34715545 -0.13591941 0 0 0
12.68304634 1.35148227 -0.13276297 0 0 0
12.68267059 1.35184264 -0.13733822 0 0 0
12.68217564 1.34939468 -0.13725889 0 0 0
12.68281651 1.35146141 -0.13505231 0 0 0
12.68148041 1.34710443 -0.13955252 0 0 0
12.68308735 1.35237730 -0.13422213 0 0 0
12.68198395 1.34822345 -0.13676968 0 0 0
12.68323517 1.35366035 -0.13538931 0 0 0
12.68400288 1.35618865 -0.13286452 0 0 0
12.68282032 1.34992945 -0.13181545 0 0 0
12.68387890 1.35585272 -0.13342375 0 0 0
12.68174553 1.34709311 -0.13682130 0 0 0
12.68347168 1.35364640 -0.13295144 0 0 0
12.68210793 1.34796977 -0.13497342 0 0 0
12.68203354 1.34966576 -0.13926953 0 0 0
12.68246365 1.35139751 -0.13850355 0 0 0
12.68214226 1.34774911 -0.13415921 0 0 0
12.68363762 1.35507894 -0.13425621 0 0 0
12.68423080 1.35717261 -0.13259447 0 0 0
12.68363094 1.35537434 -0.13494256 0 0 0
12.68367290 1.35450089 -0.13269626 0 0 0
12.68247509 1.35044193 -0.13639501 0 0 0
12.68259621 1.35017562 -0.13460444 0 0 0
12.68473148 1.35947192 -0.13231333 0 0 0
12.68301105 1.35265338 -0.13556324 0 0 0
12.68179321 1.34691572 -0.13597623 0 0 0
12.68337917 1.35293984 -0.13242462 0 0 0
12.68254662 1.34979486 -0.13431856 0 0 0
12.68185616 1.34750223 -0.13655256 0 0 0
12.68209362 1.34897780 -0.13722242 0 0 0
12.68120766 1.34699678 -0.14209744 0 0 0
12.68248749 1.34920549 -0.13368942 0 0 0
12.68297577 1.35329974 -0.13727087 0 0 0
12.68258858 1.35004628 -0.13441558 0 0 0
12.68308258 1.35355031 -0.13670816 0 0 0
12.68409157 1.35650718 -0.13263257 0 0 0
12.68229675 1.34712124 -0.13128150 0 0 0
12.68172836 1.34811676 -0.13914181 0 0 0
12.68254662 1.34948528 -0.13367747 0 0 0
12.68387699 1.35617006 -0.13410515 0 0 0
12.68277740 1.34912980 -0.13058248 0 0 0
12.68443871 1.35854709 -0.13335834 0 0 0
12.68264771 1.34973848 -0.13317515 0 0 0
12.68374252 1.35498750 -0.13300231 0 0 0
12.68391418 1.35553944 -0.13241532 0 0 0
12.68347836 1.35371077 -0.13302636 0 0 0
12.68270874 1.35112154 -0.13543586 0 0 0
12.68301201 1.35177183 -0.13371590 0 0 0
12.68351364 1.35320234 -0.13159500 0 0 0
12.68422604 1.35776556 -0.13388458 0 0 0
12.68239689 1.34932315 -0.13485830 0 0 0
12.68191433 1.34797716 -0.13695443 0 0 0
12.68278313 1.35111868 -0.13467740 0 0 0
12.68332863 1.35441601 -0.13601199 0 0 0
12.68411064 1.35736656 -0.13422234 0 0 0
12.68180561 1.34711647 -0.13626322 0 0 0
12.68300915 1.35177279 -0.13374539 0 0 0
12.68243313 1.34925246 -0.13434179 0 0 0
12.68203735 1.34773231 -0.13519712 0 0 0
12.68350601 1.35397303 -0.13328256 0 0 0
12.68183994 1.34850025 -0.13880740 0 0 0
12.68382072 1.35533428 -0.13292831 0 0 0
12.68376446 1.35578883 -0.13445969 0 0 0
12.68214130 1.34740245 -0.13345355 0 0 0
12.68410587 1.35669839 -0.13287894 0 0 0
12.68230915 1.35047245 -0.13815208 0 0 0
12.68242550 1.34882641 -0.13353485 0 0 0
12.68292904 1.35059524 -0.13210495 0 0 0
12.68356323 1.35389555 -0.13254455 0 0 0
12.68304729 1.35056829 -0.13084929 0 0 0
12.68208599 1.34709179 -0.13336462 0 0 0
12.68247032 1.35002625 -0.13557896 0 0 0
12.68350029 1.35517740 -0.13586862 0 0 0
12.68344688 1.35283089 -0.13150510 0 0 0
12.68212032 1.34830117 -0.13553619 0 0 0
12.68372536 1.35518253 -0.13358505 0 0 0
12.68212700 1.34850967 -0.13589834 0 0 0
12.68242168 1.34928370 -0.13452269 0 0 0
12.68242741 1.34741950 -0.13057043 0 0 0
12.68292141 1.35265732 -0.13648720 0 0 0
12.68442059 1.35805714 -0.13251385 0 0 0
12.68292999 1.35039830 -0.13168433 0 0 0
12.68395805 1.35522640 -0.13131274 0 0 0
12.68181133 1.34695053 -0.13585922 0 0 0
12.68183136 1.34912050 -0.14018691 0 0 0
12.68232822 1.35021710 -0.13742022 0 0 0
12.68193531 1.34824502 -0.13729417 0 0 0
12.68252182 1.35006511 -0.13513595 0 0 0
12.68232822 1.34834874 -0.13352910 0 0 0
12.68299866 1.35064828 -0.13150793 0 0 0
12.68426800 1.35768127 -0.13327773 0 0 0
12.68383789 1.35597479 -0.13409047 0 0 0
12.68170071 1.34783149 -0.13882779 0 0 0
12.68282700 1.35167253 -0.13539414 0 0 0
12.68212700 1.34886050 -0.13663660 0 0 0
12.68252373 1.35158849 -0.13829525 0 0 0
12.68241882 1.35066378 -0.13743392 0 0 0
12.68462849 1.35893464 -0.13223541 0 0 0
12.68387318 1.35545611 -0.13265577 0 0 0
12.68354988 1.35320508 -0.13123424 0 0 0
12.68341446 1.35332477 -0.13285957 0 0 0
12.68295574 1.35314906 -0.13716823 0 0 0
12.68636894 1.35717463 -0.10105862 0 0 0
12.68671227 1.36020243 -0.09996447 0 0 0
12.68696022 1.35423899 -0.10392526 0 0 0
12.68873882 1.36025846 -0.10389169 0 0 0
12.68557072 1.36116433 -0.09717505 0 0 0
12.68661785 1.35989738 -0.09995805 0 0 0
12.68663502 1.35676181 -0.10181864 0 0 0
12.68781662 1.35364521 -0.10594333 0 0 0
12.68791389 1.35475433 -0.10548682 0 0 0
12.68633175 1.35830176 -0.10032873 0 0 0
12.68740082 1.36078584 -0.10097146 0 0 0
12.68742085 1.36103559 -0.10086379 0 0 0
12.68795776 1.35342145 -0.10634735 0 0 0
12.68634129 1.35433936 -0.10265565 0 0 0
12.68629169 1.35688090 -0.10107909 0 0 0
12.68592834 1.35203660 -0.10319099 0 0 0
12.68627167 1.35475814 -0.10227721 0 0 0
12.68684769 1.35867512 -0.10111949 0 0 0
12.68692970 1.35610664 -0.10277642 0 0 0
12.68813801 1.35687649 -0.10468786 0 0 0
12.68802357 1.35393381 -0.10617856 0 0 0
12.68684578 1.35859501 -0.10116343 0 0 0
12.68708801 1.35533535 -0.10353487 0 0 0
12.68778133 1.36004984 -0.10214205 0 0 0
12.68769455 1.35594106 -0.10436650 0 0 0
12.68743706 1.36068225 -0.10110322 0 0 0
12.68638992 1.36030161 -0.09927858 0 0 0
12.68743229 1.35993874 -0.10152385 0 0 0
12.68612194 1.35955024 -0.09919250 0 0 0
12.68720341 1.35641241 -0.10313121 0 0 0
12.68714046 1.35389745 -0.10447448 0 0 0
12.68736839 1.35965359 -0.10156700 0 0 0
12.68647289 1.35671020 -0.10153211 0 0 0
12.68935013 1.35931170 -0.10563698 0 0 0
12.68745232 1.35587966 -0.10392951 0 0 0
12.68639088 1.35402203 -0.10293783 0 0 0
12.68636608 1.35722780 -0.10102128 0 0 0
12.68714619 1.35257423 -0.10525633 0 0 0
12.68629551 1.35108495 -0.10446253 0 0 0
12.68629169 1.35631788 -0.10140580 0 0 0
12.68852234 1.35838318 -0.10456230 0 0 0
12.68924522 1.35749698 -0.10648913 0 0 0
12.68692780 1.36017680 -0.10040057 0 0 0
12.68682480 1.35989416 -0.10036385 0 0 0
12.68632030 1.34988761 -0.10520878 0 0 0
12.68619156 1.35811007 -0.10016735 0 0 0
12.68803883 1.36084902 -0.10218037 0 0 0
12.68845940 1.35794103 -0.10469488 0 0 0
12.68603992 1.34999275 -0.10459802 0 0 0
12.68821812 1.35711050 -0.10470802 0 0 0
12.68762589 1.35895348 -0.10247738 0 0 0
12.68703651 1.35708332 -0.10241616 0 0 0
12.68618584 1.35743046 -0.10055279 0 0 0
12.68615437 1.34872520 -0.10556124 0 0 0
12.68758488 1.35917568 -0.10226830 0 0 0
12.68699265 1.35077703 -0.10600453 0 0 0
12.68775654 1.35647476 -0.10417540 0 0 0
12.68592930 1.35813868 -0.09963769 0 0 0
12.68694305 1.35716736 -0.10218390 0 0 0
12.68610001 1.35547554 -0.10152177 0 0 0
12.68689251 1.35427690 -0.10377008 0 0 0
12.68715954 1.36052048 -0.10065275 0 0 0
12.68727779 1.35184669 -0.10593759 0 0 0
12.68820286 1.35858643 -0.10381795 0 0 0
12.68718719 1.35374153 -0.10465761 0 0 0
12.68696404 1.35714900 -0.10223544 0 0 0
12.68655396 1.36056840 -0.09944154 0 0 0
12.68739319 1.35574090 -0.10389362 0 0 0
12.68791485 1.35653973 -0.10444694 0 0 0
12.68750000 1.35531962 -0.10434940 0 0 0
12.68781090 1.35467327 -0.10533305 0 0 0
12.68832970 1.35995770 -0.10326891 0 0 0
12.68851852 1.35875988 -0.10433441 0 0 0
12.68632221 1.35185230 -0.10406763 0 0 0
12.68691921 1.35508823 -0.10334895 0 0 0
12.68653488 1.35531378 -0.10246746 0 0 0
12.68823242 1.36003232 -0.10303381 0 0 0
12.68782330 1.35525239 -0.10501877 0 0 0
12.68552303 1.35869384 -0.09852096 0 0 0
12.68830967 1.35945570 -0.10352206 0 0 0
12.68697357 1.35612679 -0.10284930 0 0 0
12.68938160 1.36031187 -0.10511547 0 0 0
12.68584061 1.35350156 -0.10216726 0 0 0
12.68581486 1.36049724 -0.09803958 0 0 0
12.68659687 1.35753703 -0.10129248 0 0 0
12.68709087 1.35616970 -0.10305414 0 0 0
12.68554115 1.36146665 -0.09694027 0 0 0
12.68755627 1.36107981 -0.10110404 0 0 0
12.68684387 1.36066329 -0.09995453 0 0 0
12.68600368 1.35027432 -0.10436369 0 0 0
12.68556595 1.35956395 -0.09809624 0 0 0
12.68759918 1.36014652 -0.10172872 0 0 0
12.68859100 1.36069822 -0.10334725 0 0 0
12.68961811 1.36057675 -0.10542497 0 0 0
12.68616772 1.35401571 -0.10250491 0 0 0
12.68561172 1.36197221 -0.09678430 0 0 0
12.68810844 1.35843027 -0.10372434 0 0 0
12.68661976 1.35312665 -0.10390683 0 0 0
12.68724346 1.35401332 -0.10460731 0 0 0
12.68712807 1.35430312 -0.10421532 0 0 0
12.68660164 1.35173082 -0.10468400 0 0 0
12.68643856 1.35425556 -0.10289425 0 0 0
12.68811703 1.35870242 -0.10358389 0 0 0
12.68955231 1.35920680 -0.10609399 0 0 0
12.68671703 1.36221015 -0.09880611 0 0 0
12.68739891 1.35871947 -0.10217167 0 0 0
12.68890667 1.35732758 -0.10592692 0 0 0
12.68552876 1.36028588 -0.09760322 0 0 0
12.68637753 1.35663915 -0.10138796 0 0 0
12.68833065 1.35900068 -0.10382598 0 0 0
12.68629742 1.34882689 -0.10578122 0 0 0
12.68680763 1.35279787 -0.10446512 0 0 0
12.68769741 1.35890341 -0.10264632 0 0 0
12.68778801 1.36018455 -0.10207707 0 0 0
12.68767834 1.35766160 -0.10333263 0 0 0
12.68629742 1.35990655 -0.09932702 0 0 0
12.68612480 1.35421288 -0.10230728 0 0 0
12.68945599 1.35901892 -0.10601569 0 0 0
12.68923378 1.35855412 -0.10585225 0 0 0
12.68970966 1.35844743 -0.10684334 0 0 0
12.68643761 1.35012937 -0.10529543 0 0 0
12.68724346 1.35563779 -0.10366152 0 0 0
12.68659687 1.35888755 -0.10050528 0 0 0
12.68898678 1.35795879 -0.10571481 0 0 0
12.68696976 1.36102331 -0.09999074 0 0 0
12.68815994 1.35947728 -0.10321565 0 0 0
12.68811226 1.35941410 -0.10315951 0 0 0
12.68633938 1.36187816 -0.09826189 0 0 0
12.68737793 1.35854030 -0.10223418 0 0 0
12.68580818 1.35126889 -0.10340296 0 0 0
12.68400383 1.35020626 -0.10051671 0 0 0
12.68381214 1.35527492 -0.09718883 0 0 0
12.68432140 1.34870863 -0.10200634 0 0 0
12.68474579 1.35391784 -0.09979454 0 0 0
12.68341827 1.35011733 -0.09942845 0 0 0
12.68577671 1.35004306 -0.10405815 0 0 0
12.68527603 1.36238885 -0.09588605 0 0 0
12.68315125 1.35528481 -0.09589747 0 0 0
12.68398094 1.35304523 -0.09881483 0 0 0
12.68429279 1.34931755 -0.10159601 0 0 0
12.68303680 1.35341311 -0.09676494 0 0 0
12.68444824 1.35809481 -0.09677943 0 0 0
12.68440247 1.35257864 -0.09990669 0 0 0
12.68376446 1.35758770 -0.09574667 0 0 0
12.68552017 1.35088193 -0.10307088 0 0 0
12.68523884 1.34847724 -0.10392467 0 0 0
12.68495369 1.35077965 -0.10202689 0 0 0
12.68359852 1.35569203 -0.09653054 0 0 0
12.68171406 1.35027349 -0.09602670 0 0 0
12.68536186 1.35767126 -0.09880445 0 0 0
12.68489742 1.35510290 -0.09939802 0 0 0
12.68374634 1.35741603 -0.09581135 0 0 0
12.68496609 1.35949230 -0.09697285 0 0 0
12.68299294 1.35012066 -0.09860051 0 0 0
12.68579197 1.34919238 -0.10458280 0 0 0
12.68513584 1.35379457 -0.10062369 0 0 0
12.68429184 1.35255623 -0.09970551 0 0 0
12.68474770 1.35915923 -0.09674058 0 0 0
12.68282318 1.35425174 -0.09586213 0 0 0
12.68566513 1.35021412 -0.10373906 0 0 0
12.68203926 1.34974802 -0.09696443 0 0 0
12.68532658 1.34913945 -0.10371002 0 0 0
12.68482876 1.35820675 -0.09745368 0 0 0
12.68403435 1.35823536 -0.09589500 0 0 0
12.68548584 1.35513806 -0.10052186 0 0 0
12.68346024 1.35193133 -0.09845299 0 0 0
12.68297482 1.35046959 -0.09836064 0 0 0
12.68493271 1.36100948 -0.09602308 0 0 0
12.68422604 1.35788465 -0.09647146 0 0 0
12.68336868 1.35210764 -0.09817176 0 0 0
12.68301296 1.35157812 -0.09778991 0 0 0
12.68298626 1.35038245 -0.09843407 0 0 0
12.68486786 1.35182130 -0.10125253 0 0 0
12.68446827 1.34915543 -0.10203200 0 0 0
12.68222141 1.34961569 -0.09739609 0 0 0
12.68450069 1.35041523 -0.10135974 0 0 0
12.68432999 1.35277629 -0.09965261 0 0 0
12.68566799 1.34939003 -0.10422801 0 0 0
12.68487835 1.35649550 -0.09854983 0 0 0
12.68530369 1.36064446 -0.09695730 0 0 0
12.68400764 1.35663486 -0.09677594 0 0 0
12.68468761 1.34902990 -0.10252970 0 0 0
12.68385792 1.35374379 -0.09816851 0 0 0
12.68364048 1.35754597 -0.09553076 0 0 0
12.68555355 1.35247099 -0.10220629 0 0 0
12.68397427 1.34986556 -0.10065570 0 0 0
12.68408489 1.35046172 -0.10052528 0 0 0
12.68462181 1.35097075 -0.10127009 0 0 0
12.68384361 1.34961724 -0.10054683 0 0 0
12.68449020 1.35138404 -0.10077278 0 0 0
12.68539238 1.35082603 -0.10285275 0 0 0
12.68198204 1.34912837 -0.09721587 0 0 0
12.68232918 1.35275686 -0.09577457 0 0 0
12.68344307 1.35463810 -0.09684218 0 0 0
12.68463230 1.35785544 -0.09727797 0 0 0
12.68509674 1.35165703 -0.10179484 0 0 0
12.68493462 1.34910536 -0.10296750 0 0 0
12.68486118 1.35100842 -0.10171559 0 0 0
12.68404579 1.34976387 -0.10085534 0 0 0
12.68357658 1.35125315 -0.09907533 0 0 0
12.68373394 1.35345376 -0.09809802 0 0 0
12.68368816 1.35344946 -0.09801076 0 0 0
12.68473911 1.36058128 -0.09589592 0 0 0
12.68466568 1.34876490 -0.10264213 0 0 0
12.68402386 1.35732007 -0.09640718 0 0 0
12.68444538 1.35240841 -0.10009070 0 0 0
12.68328762 1.35238814 -0.09785160 0 0 0
12.68191910 1.34926724 -0.09701151 0 0 0
12.68259239 1.35160112 -0.09696042 0 0 0
12.68292427 1.35028684 -0.09837025 0 0 0
12.68322849 1.35407639 -0.09675233 0 0 0
12.68277645 1.35157609 -0.09733066 0 0 0
12.68534088 1.35676682 -0.09928883 0 0 0
12.68295097 1.35317087 -0.09674109 0 0 0
12.68538380 1.35945344 -0.09780742 0 0 0
12.68536282 1.35312712 -0.10145368 0 0 0
12.68375206 1.34982383 -0.10024951 0 0 0
12.68286896 1.34937811 -0.09879333 0 0 0
12.68444443 1.35206938 -0.10028701 0 0 0
12.68250370 1.35273945 -0.09612439 0 0 0
12.68530655 1.35217941 -0.10189705 0 0 0
12.68576145 1.35150588 -0.10317422 0 0 0
12.68213081 1.35176814 -0.09596580 0 0 0
12.68548584 1.34984243 -0.10360828 0 0 0
12.68237495 1.34906495 -0.09801593 0 0 0
12.68496418 1.36039734 -0.09644121 0 0 0
12.68140221 1.35053647 -0.09526476 0 0 0
12.68431377 1.35571110 -0.09791040 0 0 0
12.68468857 1.35152256 -0.10107946 0 0 0
12.68316460 1.35220766 -0.09771807 0 0 0
12.68287563 1.35014868 -0.09835650 0 0 0
12.68504143 1.34893310 -0.10327535 0 0 0
12.68291092 1.35326958 -0.09660692 0 0 0
12.68568516 1.35298789 -0.10216326 0 0 0
12.68349171 1.35632503 -0.09595367 0 0 0
12.68565559 1.35104144 -0.10324115 0 0 0
12.68409348 1.35480487 -0.09800944 0 0 0
12.68431664 1.35245001 -0.09981646 0 0 0
12.68551064 1.35676455 -0.09962083 0 0 0
12.68475246 1.35501862 -0.09916477 0 0 0
12.68141556 1.34973490 -0.09575875 0 0 0
12.68309879 1.34905040 -0.09943049 0 0 0
12.68225479 1.35011232 -0.09717071 0 0 0
12.68475056 1.36039960 -0.09602400 0 0 0
12.68543720 1.35664141 -0.09954906 0 0 0
12.68508339 1.35016239 -0.10264136 0 0 0
12.68542004 1.34810984 -0.10449141 0 0 0
12.68479729 1.35780454 -0.09762933 0 0 0
12.68334007 1.35185206 -0.09826493 0 0 0
12.68355560 1.35418069 -0.09732810 0 0 0
12.68539619 1.35035527 -0.10313565 0 0 0
12.68455410 1.34991515 -0.10175573 0 0 0
12.68243027 1.35023212 -0.09744113 0 0 0
12.68498039 1.35619438 -0.09892157 0 0 0
12.68558502 1.35305214 -0.10193040 0 0 0
12.68463707 1.36145389 -0.09533393 0 0 0
12.67988110 1.35319161 -0.09257860 0 0 0
12.67955780 1.34947968 -0.09343417 0 0 0
12.68077469 1.35422206 -0.09326863 0 0 0
12.68195343 1.35270548 -0.09513310 0 0 0
12.67776012 1.34687603 -0.09222069 0 0 0
12.68214417 1.35366189 -0.09503590 0 0 0
12.68393135 1.35936654 -0.09520985 0 0 0
12.68131924 1.35669780 -0.09307896 0 0 0
12.67218590 1.34186912 -0.08744163 0 0 0
12.68192101 1.35515213 -0.09428475 0 0 0
12.67968941 1.35268664 -0.09252357 0 0 0
12.67742729 1.34631407 -0.09202196 0 0 0
12.68131161 1.35518730 -0.09356918 0 0 0
12.67624569 1.34534752 -0.09097806 0 0 0
12.67325497 1.34407830 -0.08794458 0 0 0
12.67637634 1.34739566 -0.09045097 0 0 0
12.68104839 1.35359216 -0.09379372 0 0 0
12.67398167 1.34357142 -0.08895101 0 0 0
12.68115520 1.35119236 -0.09471101 0 0 0
12.68130779 1.35087454 -0.09499344 0 0 0
12.67990303 1.35138142 -0.09320365 0 0 0
12.67452049 1.34480882 -0.08916503 0 0 0
12.67057991 1.33961892 -0.08633245 0 0 0
12.67399693 1.34470129 -0.08859590 0 0 0
12.67975712 1.34878719 -0.09389367 0 0 0
12.67773533 1.34723210 -0.09207390 0 0 0
12.67448997 1.34484148 -0.08911756 0 0 0
12.68212605 1.35533309 -0.09446182 0 0 0
12.68027687 1.34986043 -0.09413815 0 0 0
12.67902565 1.35173905 -0.09207111 0 0 0
12.67877483 1.34778619 -0.09309096 0 0 0
12.68310738 1.35904169 -0.09436627 0 0 0
12.67944145 1.35293388 -0.09215643 0 0 0
12.67426109 1.34309995 -0.08943172 0 0 0
12.67694283 1.34598970 -0.09157096 0 0 0
12.67631721 1.34537888 -0.09105068 0 0 0
12.68288708 1.35740769 -0.09465280 0 0 0
12.68092918 1.35209215 -0.09415217 0 0 0
12.67219734 1.34194016 -0.08743243 0 0 0
12.67378139 1.34382272 -0.08863748 0 0 0
12.67479897 1.34449840 -0.08958918 0 0 0
12.67996597 1.34953368 -0.09388734 0 0 0
12.68227482 1.35386753 -0.09511805 0 0 0
12.67222023 1.34240782 -0.08730397 0 0 0
12.67412376 1.34528995 -0.08854769 0 0 0
12.67953873 1.35082591 -0.09296706 0 0 0
12.67572880 1.34672022 -0.08992598 0 0 0
12.68166351 1.35435617 -0.09425119 0 0 0
12.67793274 1.35098481 -0.09105964 0 0 0
12.68232059 1.35717165 -0.09407730 0 0 0
12.67803097 1.34723842 -0.09241281 0 0 0
12.68124676 1.35441327 -0.09375027 0 0 0
12.68248940 1.35439110 -0.09519327 0 0 0
12.68017197 1.35104823 -0.09362398 0 0 0
12.68181133 1.35725391 -0.09346183 0 0 0
12.67280293 1.34177148 -0.08818721 0 0 0
12.68016052 1.35172892 -0.09338512 0 0 0
12.67615700 1.34792864 -0.09002143 0 0 0
12.67908955 1.34825587 -0.09329942 0 0 0
12.67727947 1.34997630 -0.09063880 0 0 0
12.68181992 1.35237873 -0.09508598 0 0 0
12.68126965 1.35547268 -0.09342618 0 0 0
12.67922115 1.35280156 -0.09194518 0 0 0
12.67811012 1.35041523 -0.09145269 0 0 0
12.67965317 1.34822416 -0.09396064 0 0 0
12.67913151 1.34774649 -0.09351519 0 0 0
12.67376804 1.34455740 -0.08837850 0 0 0
12.67229843 1.34198296 -0.08753484 0 0 0
12.68447685 1.36054897 -0.09544925 0 0 0
12.68311501 1.35933244 -0.09427897 0 0 0
12.68001652 1.35386574 -0.09251171 0 0 0
12.68405914 1.35975778 -0.09522818 0 0 0
12.67521572 1.34663069 -0.08936392 0 0 0
12.67428493 1.34337747 -0.08936631 0 0 0
12.68009663 1.35322297 -0.09281710 0 0 0
12.68173218 1.35377359 -0.09452298 0 0 0
12.68115902 1.35003686 -0.09509870 0 0 0
12.67828751 1.34900594 -0.09212369 0 0 0
12.68226528 1.35458493 -0.09486943 0 0 0
12.67614841 1.34743810 -0.09017330 0 0 0
12.67947197 1.35157073 -0.09264256 0 0 0
12.68264580 1.35697544 -0.09451710 0 0 0
12.67911434 1.35107780 -0.09239386 0 0 0
12.67553043 1.34541440 -0.09013056 0 0 0
12.67764473 1.34772801 -0.09180547 0 0 0
12.67430687 1.34495926 -0.08886851 0 0 0
12.68415165 1.36004150 -0.09524117 0 0 0
12.67303753 1.34203446 -0.08837120 0 0 0
12.67732048 1.34833074 -0.09123122 0 0 0
12.68189621 1.35231221 -0.09519662 0 0 0
12.68356323 1.36021006 -0.09450538 0 0 0
12.68242359 1.35441005 -0.09511055 0 0 0
12.68220520 1.35730243 -0.09390090 0 0 0
12.67032623 1.33938897 -0.08611658 0 0 0
12.67600060 1.34541345 -0.09067301 0 0 0
12.68106937 1.35275221 -0.09409576 0 0 0
12.67755222 1.34823000 -0.09153172 0 0 0
12.68065357 1.35098851 -0.09420021 0 0 0
12.67168140 1.34148145 -0.08698854 0 0 0
12.67587471 1.34612143 -0.09029286 0 0 0
12.67969894 1.34855247 -0.09390462 0 0 0
12.68199825 1.35576761 -0.09417032 0 0 0
12.67466164 1.34381914 -0.08965493 0 0 0
12.67640209 1.34783566 -0.09033479 0 0 0
12.68209267 1.35746574 -0.09371640 0 0 0
12.67538166 1.34521699 -0.09002364 0 0 0
12.67070484 1.33998132 -0.08635782 0 0 0
12.67968750 1.35264480 -0.09253538 0 0 0
12.67981052 1.35295343 -0.09257586 0 0 0
12.68110943 1.35403407 -0.09371758 0 0 0
12.67938519 1.35039151 -0.09293246 0 0 0
12.68356323 1.35999262 -0.09457863 0 0 0
12.67368984 1.34331632 -0.08869939 0 0 0
12.67377853 1.34382474 -0.08863384 0 0 0
12.68020725 1.35027754 -0.09391937 0 0 0
12.67880344 1.34762907 -0.09317524 0 0 0
12.68010998 1.35159707 -0.09337012 0 0 0
12.67254734 1.34529817 -0.08585828 0 0 0
12.67544365 1.34832251 -0.08876431 0 0 0
12.67362213 1.34747553 -0.08619445 0 0 0
12.67523575 1.35045314 -0.08690365 0 0 0
12.67455482 1.34815001 -0.08734231 0 0 0
12.67463684 1.35003304 -0.08615762 0 0 0
12.67875099 1.35582399 -0.08923362 0 0 0
12.68349552 1.36031103 -0.09432235 0 0 0
12.68171883 1.35815299 -0.09275248 0 0 0
12.67747784 1.35274422 -0.08918790 0 0 0
12.67966175 1.35553491 -0.09101894 0 0 0
12.67094040 1.34090781 -0.08615626 0 0 0
12.67462635 1.34941971 -0.08657151 0 0 0
12.67307854 1.34569705 -0.08649982 0 0 0
12.67216873 1.34357858 -0.08640912 0 0 0
12.68224144 1.35931265 -0.09284695 0 0 0
12.67618847 1.35331523 -0.08654478 0 0 0
12.67755127 1.35129035 -0.09033740 0 0 0
12.68386459 1.36120391 -0.09433645 0 0 0
12.68099785 1.35827911 -0.09141224 0 0 0
12.68375969 1.36109984 -0.09422680 0 0 0
12.67514896 1.34915304 -0.08766696 0 0 0
12.67964554 1.35519505 -0.09123030 0 0 0
12.68274784 1.35989940 -0.09331351 0 0 0
12.67224979 1.34303474 -0.08693372 0 0 0
12.67089653 1.34118247 -0.08588496 0 0 0
12.67567348 1.35292637 -0.08592290 0 0 0
12.67178440 1.34218299 -0.08672412 0 0 0
12.67435932 1.34878516 -0.08655416 0 0 0
12.68266392 1.36011302 -0.09301554 0 0 0
12.67315865 1.34395754 -0.08786324 0 0 0
12.68215752 1.35970497 -0.09242358 0 0 0
12.67771244 1.35409904 -0.08864246 0 0 0
12.67829132 1.35209930 -0.09105627 0 0 0
12.67654324 1.35098147 -0.08880328 0 0 0
12.67798042 1.35249531 -0.09023640 0 0 0
12.67938519 1.35686696 -0.08960303 0 0 0
12.67653275 1.35145819 -0.08845003 0 0 0
12.67354870 1.34792030 -0.08575493 0 0 0
12.67474079 1.34953618 -0.08668884 0 0 0
12.67587185 1.35029757 -0.08811888 0 0 0
12.67711544 1.35376811 -0.08783885 0 0 0
12.67256546 1.34485555 -0.08620083 0 0 0
12.68068314 1.35703123 -0.09174175 0 0 0
12.67371655 1.34871328 -0.08548696 0 0 0
12.68207455 1.35898948 -0.09278286 0 0 0
12.67631817 1.35086894 -0.08849364 0 0 0
12.68150711 1.35721421 -0.09304596 0 0 0
12.67529774 1.35038018 -0.08706270 0 0 0
12.67325783 1.34515691 -0.08719217 0 0 0
12.68229389 1.35926068 -0.09297442 0 0 0
12.67125702 1.34245241 -0.08561919 0 0 0
12.68444538 1.36164176 -0.09503751 0 0 0
12.68244076 1.35956335 -0.09301522 0 0 0
12.67098045 1.34145784 -0.08583791 0 0 0
12.67498684 1.34793806 -0.08824010 0 0 0
12.67033005 1.34008980 -0.08567034 0 0 0
12.68193054 1.35789883 -0.09329952 0 0 0
12.67741013 1.35086465 -0.09039280 0 0 0
12.67369080 1.34705532 -0.08660930 0 0 0
12.67058659 1.34024286 -0.08600847 0 0 0
12.68274307 1.36020231 -0.09309155 0 0 0
12.67395401 1.34566212 -0.08804810 0 0 0
12.68392181 1.36114264 -0.09447697 0 0 0
12.67508888 1.35076547 -0.08642857 0 0 0
12.67956543 1.35480189 -0.09136914 0 0 0
12.67209053 1.34447348 -0.08564564 0 0 0
12.67743874 1.35083199 -0.09046670 0 0 0
12.67938614 1.35494113 -0.09095884 0 0 0
12.68176746 1.35912204 -0.09215587 0 0 0
12.67270374 1.34599853 -0.08563698 0 0 0
12.67446899 1.35094261 -0.08522597 0 0 0
12.67575073 1.34873271 -0.08900937 0 0 0
12.67340183 1.34730482 -0.08593262 0 0 0
12.67537498 1.34740293 -0.08929076 0 0 0
12.67648220 1.35144961 -0.08836954 0 0 0
12.67730141 1.35263121 -0.08896109 0 0 0
12.68032932 1.35534716 -0.09231304 0 0 0
12.67700291 1.35368431 -0.08770017 0 0 0
12.68439102 1.36185801 -0.09479147 0 0 0
12.67985821 1.35658514 -0.09062260 0 0 0
12.67226505 1.34365404 -0.08652400 0 0 0
12.67001343 1.33907616 -0.08583279 0 0 0
12.67829609 1.35250068 -0.09078263 0 0 0
12.67399406 1.34721351 -0.08702447 0 0 0
12.67208004 1.34281361 -0.08679444 0 0 0
12.67546272 1.35050178 -0.08726300 0 0 0
12.67492008 1.34773803 -0.08826484 0 0 0
12.67568779 1.35269272 -0.08611304 0 0 0
12.67833710 1.35480177 -0.08923448 0 0 0
12.67418766 1.34746087 -0.08718593 0 0 0
12.67519379 1.35244274 -0.08542979 0 0 0
12.67450809 1.34760165 -0.08764613 0 0 0
12.67983532 1.35632193 -0.09076856 0 0 0
12.67038631 1.33975220 -0.08600595 0 0 0
12.67720795 1.35357928 -0.08813184 0 0 0
12.68140793 1.35840476 -0.09203573 0 0 0
12.67506695 1.34977043 -0.08709141 0 0 0
12.67663097 1.35164440 -0.08849124 0 0 0
12.67567635 1.35108018 -0.08722693 0 0 0
12.67685032 1.35059226 -0.08961070 0 0 0
12.67350292 1.34625280 -0.08684677 0 0 0
12.67708969 1.35033786 -0.09020712 0 0 0
12.67662334 1.35288346 -0.08760495 0 0 0
12.67502117 1.34900999 -0.08754525 0 0 0
12.68207550 1.35824728 -0.09330629 0 0 0
12.67659473 1.35012329 -0.08949810 0 0 0
12.67261887 1.34358096 -0.08719166 0 0 0
12.67512608 1.34764683 -0.08868638 0 0 0
12.67795467 1.35429227 -0.08892725 0 0 0
12.68431282 1.36175120 -0.09473000 0 0 0
12.67494488 1.34869659 -0.08763313 0 0 0
12.67944431 1.35450613 -0.09136662 0 0 0
12.67904663 1.35331643 -0.09151216 0 0 0
12.67454529 1.34975541 -0.08619443 0 0 0
12.67515945 1.34870863 -0.08799917 0 0 0
12.67910862 1.35354269 -0.09146026 0 0 0
12.67008781 1.33939195 -0.08573973 0 0 0
12.67180157 1.34235072 -0.08663605 0 0 0
12.67421627 1.35000694 -0.08544567 0 0 0
12.67939663 1.35647345 -0.08989844 0 0 0
12.67235851 1.34359980 -0.08672435 0 0 0
12.67518425 1.35015428 -0.08702493 0 0 0
12.67713451 1.35268915 -0.08863141 0 0 0
12.67924976 1.35396039 -0.09141248 0 0 0
12.68091583 1.35765374 -0.09170751 0 0 0
12.67362118 1.34683633 -0.08664190 0 0 0
12.67913723 1.35430086 -0.09097639 0 0 0
12.68033314 1.35611117 -0.09178053 0 0 0
12.67195797 1.34380805 -0.08588172 0 0 0
12.68167877 1.35875511 -0.09226068 0 0 0
12.67939281 1.35614502 -0.09012350 0 0 0
12.67369652 1.34717071 -0.08653948 0 0 0
12.67813969 1.35308754 -0.09009724 0 0 0
12.67760563 1.35334229 -0.08898930 0 0 0
12.67564106 1.34889841 -0.08870320 0 0 0
12.67595196 1.35204720 -0.08702549 0 0 0
12.67067432 1.34955716 -0.08068831 0 0 0
12.66930676 1.34803224 -0.08019640 0 0 0
12.67502880 1.35270894 -0.08459920 0 0 0
12.67501831 1.35526526 -0.08107061 0 0 0
12.67983913 1.36087847 -0.08248208 0 0 0
12.67886353 1.35969067 -0.08226854 0 0 0
12.67441750 1.35203516 -0.08436842 0 0 0
12.67433357 1.35317826 -0.08263967 0 0 0
12.67395115 1.35253930 -0.08279442 0 0 0
12.67612362 1.35518885 -0.08326555 0 0 0
12.67710114 1.35738635 -0.08209661 0 0 0
12.67259789 1.35207665 -0.08086921 0 0 0
12.66745377 1.34656250 -0.07870809 0 0 0
12.67987061 1.36013043 -0.08356728 0 0 0
12.67686176 1.35565460 -0.08402215 0 0 0
12.67450333 1.35359979 -0.08238149 0 0 0
12.67074585 1.34964001 -0.08071158 0 0 0
12.67495251 1.35243654 -0.08482985 0 0 0
12.67507458 1.35285771 -0.08448241 0 0 0
12.67853737 1.35937345 -0.08208567 0 0 0
12.67205620 1.34982204 -0.08294003 0 0 0
12.67019558 1.34933078 -0.08009481 0 0 0
12.67710590 1.35630906 -0.08358426 0 0 0
12.67390633 1.35392094 -0.08081245 0 0 0
12.67720222 1.35654581 -0.08344176 0 0 0
12.67736912 1.35680318 -0.08340552 0 0 0
12.66444874 1.34335518 -0.07742947 0 0 0
12.66817093 1.34628856 -0.08044068 0 0 0
12.67573643 1.35613143 -0.08123875 0 0 0
12.67714214 1.35715091 -0.08249878 0 0 0
12.67540646 1.35374165 -0.08389558 0 0 0
12.66821957 1.34645545 -0.08030546 0 0 0
12.67269421 1.35127485 -0.08215132 0 0 0
12.67695045 1.35617566 -0.08347463 0 0 0
12.67057323 1.35020900 -0.07960395 0 0 0
12.66882801 1.34771454 -0.07972674 0 0 0
12.67248917 1.35104883 -0.08207406 0 0 0
12.67708206 1.35639846 -0.08341872 0 0 0
12.67550755 1.35385263 -0.08393428 0 0 0
12.67381573 1.35132492 -0.08420641 0 0 0
12.67142773 1.35084951 -0.08034035 0 0 0
12.66498470 1.34392774 -0.07765473 0 0 0
12.67429352 1.35438108 -0.08091288 0 0 0
12.67435074 1.35419190 -0.08128057 0 0 0
12.67551041 1.35485077 -0.08257005 0 0 0
12.67862511 1.35871053 -0.08316226 0 0 0
12.67741871 1.35631251 -0.08417213 0 0 0
12.67141724 1.35086310 -0.08030131 0 0 0
12.67297268 1.35256743 -0.08090410 0 0 0
12.67145634 1.35092664 -0.08028734 0 0 0
12.66856480 1.34805846 -0.07875622 0 0 0
12.67019653 1.34835148 -0.08144147 0 0 0
12.67264462 1.35229647 -0.08065697 0 0 0
12.66798115 1.34716237 -0.07888202 0 0 0
12.67819881 1.35916376 -0.08173323 0 0 0
12.67888832 1.35962105 -0.08240864 0 0 0
12.67030716 1.34976864 -0.07970458 0 0 0
12.66924953 1.34794664 -0.08020533 0 0 0
12.67356491 1.35205555 -0.08272773 0 0 0
12.66469383 1.34361231 -0.07754032 0 0 0
12.67454433 1.35219502 -0.08438898 0 0 0
12.67575455 1.35530639 -0.08240534 0 0 0
12.67176437 1.35162401 -0.07991327 0 0 0
12.67251873 1.35137117 -0.08168759 0 0 0
12.66615105 1.34524810 -0.07804918 0 0 0
12.67495155 1.35403359 -0.08263444 0 0 0
12.68001175 1.36028314 -0.08362628 0 0 0
12.67131996 1.35022855 -0.08098953 0 0 0
12.67487526 1.35372615 -0.08291269 0 0 0
12.66992569 1.34809411 -0.08128154 0 0 0
12.67315769 1.35170662 -0.08243580 0 0 0
12.67382050 1.35373211 -0.08090891 0 0 0
12.67445087 1.35211682 -0.08431945 0 0 0
12.67283058 1.35155869 -0.08202127 0 0 0
12.67491436 1.35435343 -0.08212589 0 0 0
12.66793728 1.34692085 -0.07913218 0 0 0
12.66766548 1.34626865 -0.07951354 0 0 0
12.67036438 1.34968042 -0.07993302 0 0 0
12.67647362 1.35567486 -0.08326102 0 0 0
12.67765617 1.35826814 -0.08193693 0 0 0
12.67297363 1.35225427 -0.08133711 0 0 0
12.67433071 1.35412514 -0.08133467 0 0 0
12.67265034 1.35057211 -0.08303385 0 0 0
12.67666435 1.35554266 -0.08380209 0 0 0
12.67430782 1.35461283 -0.08062185 0 0 0
12.67398643 1.35386384 -0.08104236 0 0 0
12.66570663 1.34430826 -0.07849919 0 0 0
12.67222881 1.35204375 -0.08021630 0 0 0
12.67015457 1.34971821 -0.07948515 0 0 0
12.66512871 1.34375930 -0.07816069 0 0 0
12.67813492 1.35761309 -0.08374171 0 0 0
12.67681122 1.35713804 -0.08188942 0 0 0
12.67539215 1.35467517 -0.08258639 0 0 0
12.67954540 1.36011517 -0.08297413 0 0 0
12.67455387 1.35440731 -0.08136904 0 0 0
12.67389679 1.35315311 -0.08184757 0 0 0
12.67719269 1.35711086 -0.08264736 0 0 0
12.67496395 1.35352910 -0.08335105 0 0 0
12.67888546 1.35934711 -0.08277947 0 0 0
12.67292786 1.35216212 -0.08137614 0 0 0
12.66726112 1.34637690 -0.07859965 0 0 0
12.66538906 1.34436536 -0.07781959 0 0 0
12.67296314 1.35283518 -0.08051790 0 0 0
12.67533779 1.35382771 -0.08364779 0 0 0
12.67574596 1.35606503 -0.08134660 0 0 0
12.67145443 1.35123730 -0.07985967 0 0 0
12.67407227 1.35258293 -0.08296359 0 0 0
12.67460155 1.35234964 -0.08428540 0 0 0
12.66388512 1.34260082 -0.07739753 0 0 0
12.66657829 1.34548724 -0.07852969 0 0 0
12.67676544 1.35730577 -0.08157241 0 0 0
12.67600250 1.35486484 -0.08348168 0 0 0
12.68049145 1.36176205 -0.08250323 0 0 0
12.66620445 1.34474981 -0.07883509 0 0 0
12.67776203 1.35729682 -0.08347153 0 0 0
12.68153381 1.36297154 -0.08281276 0 0 0
12.68000412 1.36064088 -0.08312094 0 0 0
12.67496872 1.35585868 -0.08060133 0 0 0
12.67091656 1.35611439 -0.07805729 0 0 0
12.67250252 1.35782528 -0.07858744 0 0 0
12.66622829 1.34650826 -0.07765856 0 0 0
12.67427635 1.35819232 -0.07957841 0 0 0
12.66746330 1.35523665 -0.07617131 0 0 0
12.67727089 1.35996294 -0.08095425 0 0 0
12.67938900 1.36145103 -0.08186729 0 0 0
12.66875744 1.35603642 -0.07675750 0 0 0
12.67167664 1.35295832 -0.07933280 0 0 0
12.67722702 1.36012077 -0.08088694 0 0 0
12.66550732 1.34472787 -0.07767490 0 0 0
12.66539192 1.34742880 -0.07691058 0 0 0
12.66647625 1.35115504 -0.07661613 0 0 0
12.67352390 1.35441387 -0.08008855 0 0 0
12.66459751 1.34730029 -0.07645774 0 0 0
12.66490746 1.34583771 -0.07702319 0 0 0
12.66869545 1.34992695 -0.07828874 0 0 0
12.67262936 1.35755098 -0.07873578 0 0 0
12.67313862 1.35683382 -0.07923156 0 0 0
12.67059135 1.35351872 -0.07852585 0 0 0
12.67602253 1.35878146 -0.08049473 0 0 0
12.66741657 1.35226882 -0.07690530 0 0 0
12.67827988 1.35982382 -0.08160697 0 0 0
12.67071724 1.35352230 -0.07860111 0 0 0
12.67153549 1.35743833 -0.07809567 0 0 0
12.66405201 1.34396291 -0.07698161 0 0 0
12.66533089 1.34826851 -0.07665766 0 0 0
12.66896057 1.35332322 -0.07757863 0 0 0
12.67042732 1.35402226 -0.07829525 0 0 0
12.67716694 1.36078441 -0.08067971 0 0 0
12.67222214 1.35623384 -0.07882503 0 0 0
12.67295551 1.35520530 -0.07953782 0 0 0
12.66969204 1.35287070 -0.07814217 0 0 0
12.66637993 1.34892511 -0.07713034 0 0 0
12.66443062 1.34670210 -0.07650942 0 0 0
12.66971493 1.35159874 -0.07848275 0 0 0
12.67763233 1.36137843 -0.08081171 0 0 0
12.67601395 1.35862195 -0.08052968 0 0 0
12.66792583 1.34759688 -0.07841670 0 0 0
12.68125057 1.36316013 -0.08256613 0 0 0
12.66639709 1.34866166 -0.07720856 0 0 0
12.67648602 1.35934198 -0.08063377 0 0 0
12.67125893 1.35632932 -0.07821218 0 0 0
12.66692734 1.34974837 -0.07725314 0 0 0
12.66873932 1.35143876 -0.07792713 0 0 0
12.67262650 1.35422933 -0.07958723 0 0 0
12.67457199 1.35606408 -0.08030554 0 0 0
12.67569923 1.35872173 -0.08031213 0 0 0
12.66646767 1.35033882 -0.07682122 0 0 0
12.66536713 1.34700787 -0.07700340 0 0 0
12.67737293 1.36108673 -0.08072814 0 0 0
12.67138958 1.35481894 -0.07867909 0 0 0
12.66528416 1.34692967 -0.07697291 0 0 0
12.66964817 1.35430765 -0.07774613 0 0 0
12.67585754 1.36019540 -0.08003040 0 0 0
12.67003918 1.35083270 -0.07887768 0 0 0
12.66649914 1.35255790 -0.07627027 0 0 0
12.66507244 1.34420907 -0.07754209 0 0 0
12.67289925 1.35399723 -0.07981344 0 0 0
12.67987537 1.36154377 -0.08214071 0 0 0
12.67439938 1.35828459 -0.07962955 0 0 0
12.66374207 1.34324133 -0.07697702 0 0 0
12.67745399 1.36053491 -0.08091917 0 0 0
12.67165756 1.35679090 -0.07833681 0 0 0
12.66883183 1.35007489 -0.07833405 0 0 0
12.66490364 1.34669363 -0.07680043 0 0 0
12.67158985 1.35289991 -0.07929499 0 0 0
12.66373730 1.34284270 -0.07707670 0 0 0
12.67320442 1.35504341 -0.07973148 0 0 0
12.66953373 1.34952319 -0.07890467 0 0 0
12.67767620 1.35858178 -0.08155674 0 0 0
12.67762184 1.35925186 -0.08135137 0 0 0
12.66583061 1.35152721 -0.07612578 0 0 0
12.66414165 1.34487653 -0.07680162 0 0 0
12.66974068 1.35602403 -0.07736132 0 0 0
12.66522598 1.34742403 -0.07681014 0 0 0
12.67405701 1.35603619 -0.07999784 0 0 0
12.66718674 1.35039222 -0.07724684 0 0 0
12.67937565 1.36147165 -0.08185381 0 0 0
12.66949368 1.34943449 -0.07890321 0 0 0
12.67555141 1.35705364 -0.08065027 0 0 0
12.67345333 1.35800493 -0.07912300 0 0 0
12.67422962 1.35818553 -0.07955098 0 0 0
12.67818451 1.36151791 -0.08111349 0 0 0
12.67742348 1.36102223 -0.08077549 0 0 0
12.66830158 1.34981287 -0.07807691 0 0 0
12.67744064 1.36129117 -0.08071686 0 0 0
12.67684174 1.35926986 -0.08087004 0 0 0
12.67353916 1.35600913 -0.07968809 0 0 0
12.68138218 1.36329806 -0.08261131 0 0 0
12.67850780 1.36023617 -0.08164050 0 0 0
12.67393589 1.35750508 -0.07954661 0 0 0
12.66527176 1.34623575 -0.07714324 0 0 0
12.66821480 1.35080254 -0.07777002 0 0 0
12.66802025 1.35497749 -0.07657889 0 0 0
12.66911793 1.34946477 -0.07866532 0 0 0
12.67525864 1.35878706 -0.08002544 0 0 0
12.67083454 1.35586679 -0.07807144 0 0 0
12.67039871 1.35386789 -0.07831801 0 0 0
12.67199707 1.35302484 -0.07951147 0 0 0
12.67731380 1.35963416 -0.08106472 0 0 0
12.66840076 1.35199594 -0.07757705 0 0 0
12.66670322 1.35092235 -0.07681525 0 0 0
12.67577267 1.35909390 -0.08026167 0 0 0
12.66735363 1.35211408 -0.07690636 0 0 0
12.68064690 1.36297703 -0.08224458 0 0 0
12.66537571 1.34532726 -0.07744008 0 0 0
12.67845345 1.36072803 -0.08148074 0 0 0
12.67241478 1.35569167 -0.07908228 0 0 0
12.66463757 1.34679663 -0.07661185 0 0 0
12.66706944 1.35330129 -0.07642828 0 0 0
12.67165756 1.35312366 -0.07927829 0 0 0
12.67574120 1.35782778 -0.08056777 0 0 0
12.67732048 1.36021483 -0.08091982 0 0 0
12.67488480 1.35547256 -0.08064902 0 0 0
12.67556572 1.35739791 -0.08057003 0 0 0
12.67118645 1.35202789 -0.07927180 0 0 0
12.66789246 1.35445368 -0.07663556 0 0 0
12.67340279 1.35425818 -0.08005435 0 0 0
12.66532898 1.34563994 -0.07733148 0 0 0
12.67660999 1.35932231 -0.08071509 0 0 0
12.66971588 1.35511541 -0.07757959 0 0 0
12.66530609 1.34728575 -0.07689510 0 0 0
12.67401409 1.35677946 -0.07978041 0 0 0
12.67528820 1.35724831 -0.08043905 0 0 0
12.66968250 1.35054803 -0.07873291 0 0 0
12.67669201 1.35817778 -0.08105860 0 0 0
12.66731548 1.34988916 -0.07745469 0 0 0
12.66748905 1.35530925 -0.07616853 0 0 0
12.67533970 1.35881019 -0.08006944 0 0 0
12.66668510 1.34776616 -0.07761488 0 0 0
12.66695881 1.34775603 -0.07778411 0 0 0
12.66339397 1.34309042 -0.07680349 0 0 0
12.66774845 1.35015547 -0.07765124 0 0 0
12.66745090 1.34728825 -0.07820560 0 0 0
12.67409229 1.35667503 -0.07985531 0 0 0
12.66832352 1.35079432 -0.07783890 0 0 0
12.66711140 1.35271490 -0.07660412 0 0 0
12.67168903 1.35545230 -0.07870004 0 0 0
12.67244816 1.35497713 -0.07928665 0 0 0
12.66698742 1.35194480 -0.07672656 0 0 0
12.67419052 1.35816967 -0.07953149 0 0 0
12.66621685 1.34790683 -0.07729246 0 0 0
12.66268730 1.34147394 -0.07678632 0 0 0
12.67283726 1.35783637 -0.07878965 0 0 0
12.66817570 1.35530245 -0.07659039 0 0 0
12.66928577 1.35593891 -0.07710576 0 0 0
12.67273045 1.35788023 -0.07871276 0 0 0
12.66857719 1.35450065 -0.07704165 0 0 0
12.66934776 1.35404909 -0.07762910 0 0 0
12.66767883 1.35396183 -0.07663087 0 0 0
12.66780758 1.35314906 -0.07691820 0 0 0
12.66555023 1.35023355 -0.07628705 0 0 0
12.66562557 1.34584343 -0.07746004 0 0 0
12.67466068 1.35820913 -0.07980898 0 0 0
12.67090130 1.35653782 -0.07793955 0 0 0
12.68322563 1.34674752 -0.11614668 0 0 0
12.68470764 1.34604788 -0.10949086 0 0 0
12.68015575 1.33783174 -0.11658615 0 0 0
12.68187141 1.34133267 -0.11443403 0 0 0
12.68477249 1.34625161 -0.10949808 0 0 0
12.68384552 1.34621441 -0.11305092 0 0 0
12.68414783 1.34483695 -0.11010578 0 0 0
12.68361568 1.34626400 -0.11400557 0 0 0
12.68375969 1.34685266 -0.11420533 0 0 0
12.68255043 1.34286439 -0.11376606 0 0 0
12.68204117 1.34161246 -0.11412976 0 0 0
12.68464184 1.34543872 -0.10896149 0 0 0
12.68398571 1.34486485 -0.11077146 0 0 0
12.68116474 1.34026778 -0.11580392 0 0 0
12.68198872 1.34136534 -0.11401651 0 0 0
12.68373013 1.34379101 -0.11038054 0 0 0
12.68491650 1.34626925 -0.10896616 0 0 0
12.68112373 1.33965683 -0.11517701 0 0 0
12.68110085 1.34001231 -0.11572428 0 0 0
12.68315411 1.34732926 -0.11717492 0 0 0
12.68019581 1.33749712 -0.11600047 0 0 0
12.68323708 1.34332442 -0.11169169 0 0 0
12.68319988 1.34377289 -0.11241765 0 0 0
12.68174553 1.34095156 -0.11442920 0 0 0
12.68492794 1.34690547 -0.10973968 0 0 0
12.68504429 1.34676623 -0.10910752 0 0 0
12.68463039 1.34646606 -0.11032530 0 0 0
12.68342209 1.34304965 -0.11062111 0 0 0
12.67946434 1.33548331 -0.11624596 0 0 0
12.68200779 1.34070647 -0.11309668 0 0 0
12.68183231 1.34096646 -0.11411034 0 0 0
12.68292809 1.34528363 -0.11541732 0 0 0
12.68163776 1.34153128 -0.11559686 0 0 0
12.68389511 1.34437048 -0.11048756 0 0 0
12.68479824 1.34650016 -0.10972060 0 0 0
12.68298721 1.34294736 -0.11218006 0 0 0
12.67945766 1.33597577 -0.11690580 0 0 0
12.68514538 1.34694231 -0.10894500 0 0 0
12.68129826 1.33896899 -0.11361489 0 0 0
12.68138504 1.33930910 -0.11371759 0 0 0
12.68471622 1.34545529 -0.10869456 0 0 0
12.68470764 1.34719300 -0.11096352 0 0 0
12.68451500 1.34585786 -0.10999093 0 0 0
12.67950726 1.33586097 -0.11656649 0 0 0
12.68437576 1.34443140 -0.10869851 0 0 0
12.68440533 1.34676921 -0.11159516 0 0 0
12.68379784 1.34624779 -0.11328099 0 0 0
12.68208694 1.34303224 -0.11578297 0 0 0
12.67992783 1.33658707 -0.11586789 0 0 0
12.68242455 1.34436214 -0.11618134 0 0 0
12.68410492 1.34656072 -0.11249231 0 0 0
12.68100166 1.33814943 -0.11371230 0 0 0
12.68385220 1.34679306 -0.11377233 0 0 0
12.68236446 1.34530377 -0.11763147 0 0 0
12.68216133 1.34206724 -0.11425184 0 0 0
12.68538475 1.34643853 -0.10736433 0 0 0
12.68341637 1.34578884 -0.11417165 0 0 0
12.68459511 1.34502697 -0.10860936 0 0 0
12.68229675 1.34350574 -0.11558028 0 0 0
12.68347359 1.34719133 -0.11575640 0 0 0
12.68238258 1.34319687 -0.11484515 0 0 0
12.68227959 1.34151793 -0.11308578 0 0 0
12.68153954 1.34022021 -0.11429083 0 0 0
12.68424511 1.34600592 -0.11123160 0 0 0
12.68059444 1.33809471 -0.11522394 0 0 0
12.68240452 1.34335041 -0.11495980 0 0 0
12.68393517 1.34701955 -0.11373951 0 0 0
12.68413448 1.34650004 -0.11229814 0 0 0
12.68164063 1.33968043 -0.11319958 0 0 0
12.68080616 1.33873439 -0.11522437 0 0 0
12.68132496 1.33913791 -0.11372837 0 0 0
12.68305206 1.34400928 -0.11329105 0 0 0
12.68223381 1.34253001 -0.11456855 0 0 0
12.68309021 1.34720862 -0.11726651 0 0 0
12.68373585 1.34650362 -0.11385339 0 0 0
12.68400097 1.34613919 -0.11235058 0 0 0
12.68258286 1.34134197 -0.11167970 0 0 0
12.68411350 1.34401274 -0.10917554 0 0 0
12.68469906 1.34687245 -0.11058327 0 0 0
12.68141937 1.34188712 -0.11689923 0 0 0
12.67995644 1.33695209 -0.11622528 0 0 0
12.68351936 1.34553432 -0.11344248 0 0 0
12.68062973 1.33964467 -0.11707885 0 0 0
12.68318558 1.34583926 -0.11513256 0 0 0
12.68080807 1.33843970 -0.11483459 0 0 0
12.68332386 1.34653544 -0.11549168 0 0 0
12.68213749 1.34127784 -0.11333020 0 0 0
12.68565559 1.34703934 -0.10708512 0 0 0
12.68429661 1.34647501 -0.11163495 0 0 0
12.68370438 1.34443951 -0.11131398 0 0 0
12.68293095 1.34186077 -0.11099765 0 0 0
12.68352032 1.34454751 -0.11216574 0 0 0
12.68223763 1.34394336 -0.11637089 0 0 0
12.68084049 1.33952427 -0.11610765 0 0 0
12.68253231 1.34177756 -0.11243792 0 0 0
12.68487835 1.34541667 -0.10801442 0 0 0
12.68262482 1.34209514 -0.11249103 0 0 0
12.68142223 1.34149635 -0.11638518 0 0 0
12.68135071 1.34178758 -0.11704082 0 0 0
12.68293953 1.34551668 -0.11567080 0 0 0
12.68402195 1.34739840 -0.11389064 0 0 0
12.68265343 1.34488380 -0.11596877 0 0 0
12.68303108 1.34371877 -0.11300129 0 0 0
12.68092346 1.33941543 -0.11564506 0 0 0
12.68246078 1.34352005 -0.11495858 0 0 0
12.68141651 1.34060955 -0.11526853 0 0 0
12.68340492 1.34259820 -0.11010573 0 0 0
12.68252563 1.34437287 -0.11580457 0 0 0
12.68367195 1.34437227 -0.11135427 0 0 0
12.68439770 1.34704173 -0.11197488 0 0 0
12.68070126 1.33933198 -0.11640020 0 0 0
12.68183804 1.34170926 -0.11504435 0 0 0
12.67941475 1.33537555 -0.11630010 0 0 0
12.68345356 1.34424603 -0.11204168 0 0 0
12.68487453 1.34695482 -0.11000994 0 0 0
12.68221092 1.34341395 -0.11579086 0 0 0
12.68539047 1.34622252 -0.10706303 0 0 0
12.68205547 1.34288156 -0.11571069 0 0 0
12.68001938 1.33679664 -0.11578343 0 0 0
12.67966843 1.33600426 -0.11612731 0 0 0
12.68224049 1.34207571 -0.11395750 0 0 0
12.68256283 1.34510732 -0.11660556 0 0 0
12.68291855 1.34617233 -0.11659915 0 0 0
12.67962456 1.33520448 -0.11525867 0 0 0
12.68155670 1.33559334 -0.10819650 0 0 0
12.68067646 1.33493888 -0.11078873 0 0 0
12.68299580 1.34129894 -0.11001190 0 0 0
12.68085194 1.33759415 -0.11357521 0 0 0
12.68168640 1.33851373 -0.11150388 0 0 0
12.68083858 1.33495629 -0.11017961 0 0 0
12.68479538 1.34430265 -0.10688521 0 0 0
12.68058300 1.33552897 -0.11193084 0 0 0
12.68423557 1.34394872 -0.10861897 0 0 0
12.68282795 1.33777368 -0.10606910 0 0 0
12.67970943 1.33445990 -0.11395281 0 0 0
12.68402863 1.34133351 -0.10601347 0 0 0
12.68192959 1.33719468 -0.10883049 0 0 0
12.68142605 1.33561814 -0.10874234 0 0 0
12.68017387 1.33479083 -0.11256794 0 0 0
12.67937946 1.33482420 -0.11572168 0 0 0
12.68221569 1.33748627 -0.10808659 0 0 0
12.68269730 1.33889353 -0.10803945 0 0 0
12.68384647 1.34279907 -0.10864230 0 0 0
12.68115711 1.33584940 -0.11009756 0 0 0
12.68535519 1.34542537 -0.10615922 0 0 0
12.67963314 1.33497679 -0.11492843 0 0 0
12.68223667 1.33875918 -0.10967065 0 0 0
12.68396091 1.34325719 -0.10879044 0 0 0
12.68299961 1.33982515 -0.10807467 0 0 0
12.68271351 1.33840084 -0.10733323 0 0 0
12.68168640 1.33678603 -0.10924809 0 0 0
12.68287659 1.33779764 -0.10590834 0 0 0
12.68404484 1.34159303 -0.10628706 0 0 0
12.68161678 1.33905399 -0.11248305 0 0 0
12.68276310 1.34113824 -0.11071290 0 0 0
12.68438721 1.34418893 -0.10833841 0 0 0
12.68281746 1.33861983 -0.10721166 0 0 0
12.68268299 1.33963490 -0.10906708 0 0 0
12.68202305 1.33523297 -0.10590175 0 0 0
12.68432426 1.34253669 -0.10642682 0 0 0
12.68180084 1.33720076 -0.10934384 0 0 0
12.67992973 1.33539033 -0.11430695 0 0 0
12.68178940 1.33630896 -0.10822047 0 0 0
12.68040848 1.33505011 -0.11198683 0 0 0
12.68289185 1.33859599 -0.10688891 0 0 0
12.67990685 1.33509862 -0.11401585 0 0 0
12.68203735 1.33878040 -0.11047796 0 0 0
12.68230152 1.33675086 -0.10679448 0 0 0
12.68072510 1.33421469 -0.10965843 0 0 0
12.68430328 1.34408355 -0.10852923 0 0 0
12.68395519 1.34344435 -0.10905920 0 0 0
12.68302250 1.34066546 -0.10907984 0 0 0
12.68008327 1.33541358 -0.11373366 0 0 0
12.68324757 1.34028089 -0.10770002 0 0 0
12.68257713 1.33657861 -0.10548804 0 0 0
12.68245029 1.33750999 -0.10719999 0 0 0
12.68220615 1.33696353 -0.10744532 0 0 0
12.68476582 1.34441912 -0.10715551 0 0 0
12.68091679 1.33793223 -0.11376236 0 0 0
12.68495750 1.34489453 -0.10702465 0 0 0
12.68043137 1.33437538 -0.11101648 0 0 0
12.68412685 1.34172118 -0.10613315 0 0 0
